# .PCD v0.7 - Point Cloud Data file format
VERSION 0.7
FIELDS x y z
SIZE 4 4 4
TYPE F F F
COUNT 1 1 1
WIDTH 1406
HEIGHT 1
VIEWPOINT 0 0 0 1 0 0 0
POINTS 1406
DATA ascii
1.8187946 -7.9436626 -0.19445217
-11.352481 -7.8298855 -0.11191308
-2.7647679 -7.8099046 -0.12708998
-2.2346122 -7.8065691 -0.18839705
-2.3301475 -7.777739 -0.18822813
-2.0250337 -7.7935381 -0.17430568
-11.409634 -7.6641102 -0.10653222
-2.4025764 -7.6751113 -0.17223489
-1.5611615 -7.5063734 -0.18302786
-1.7333065 -7.4149756 -0.17158437
-1.6522677 -7.4819827 -0.18198514
-1.9011261 -7.316668 -0.15945733
-1.8221341 -7.384335 -0.16959929
-1.9711567 -7.2204337 -0.14300144
-1.1416444 -7.2636724 -0.19968379
-2.9272001 -7.1333714 -0.10325253
-2.8391852 -7.168479 -0.10317934
-2.0411658 -7.1307688 -0.12818372
-1.7520578 -7.1003451 -0.19054723
-1.6620102 -7.1099744 -0.18784904
-1.5777941 -7.144743 -0.19137168
-1.4861132 -7.1455259 -0.18710589
-1.3462534 -7.1302009 -0.17737132
-1.2211454 -7.1920919 -0.18631864
-2.1597829 -7.0517473 -0.11897755
-1.8279014 -7.0348554 -0.1801765
-2.6367905 -6.9041123 -0.12233114
-2.4449301 -6.9064279 -0.10826552
-2.3646755 -6.9500771 -0.11154044
-2.2796118 -6.9802246 -0.11191273
-1.9449847 -6.9566422 -0.16979867
-2.7562847 -6.8363681 -0.11810273
-2.5372391 -6.8965678 -0.11310911
-2.1473804 -6.8598785 -0.16160834
-2.0612183 -6.8800864 -0.1602416
-1.0718482 -6.8195963 -0.17656779
-0.99566609 -6.8855524 -0.18964672
-2.3726175 -6.7021599 -0.14348602
-2.2552316 -6.7645807 -0.14834404
-1.925063 -6.7251658 -0.19889915
-1.834383 -6.7194257 -0.19162595
-1.7475839 -6.7257457 -0.18768239
-1.6547153 -6.7058573 -0.1774621
-1.5753726 -6.7393446 -0.18086863
-1.4478438 -6.7537966 -0.17755383
-1.3157483 -6.7408948 -0.16801643
-1.2244409 -6.7106991 -0.15669572
-1.1531706 -6.7917461 -0.17307889
1.6429548 -6.790957 -0.19686115
1.7129756 -6.7180476 -0.18377662
-2.4427783 -6.6398101 -0.13543534
-2.0785909 -6.6401286 -0.1898154
-1.9969766 -6.6656566 -0.18993843
1.7945703 -6.6933703 -0.18299246
1.8677049 -6.6388664 -0.17493308
1.9652282 -6.6699781 -0.18874848
2.060221 -6.6880822 -0.19961464
2.1359704 -6.6427064 -0.19462669
2.3048983 -6.6063094 -0.19928372
-2.6031339 -6.5724878 -0.13412213
-2.5115335 -6.5761428 -0.12723351
-2.1390305 -6.5497608 -0.17338216
1.1589392 -6.5196424 -0.18613052
1.241666 -6.5190425 -0.18979442
1.325262 -6.5208821 -0.19436526
2.3855729 -6.5765524 -0.1990428
2.458894 -6.527307 -0.19399977
-1.5044324 -6.4358673 -0.18295181
-1.424517 -6.4506574 -0.18211424
-1.3383257 -6.4349346 -0.17359865
-1.2551467 -6.4304185 -0.16828609
-0.44928935 -6.4199829 -0.13872743
-0.25168437 -6.4287958 -0.13825828
-0.13325639 -6.4333162 -0.13847566
-0.05403854 -6.4170456 -0.13403928
0.024760406 -6.4000998 -0.12967861
1.0683024 -6.4702387 -0.16983187
1.4817001 -6.4713879 -0.19045901
1.5565127 -6.4336586 -0.1854732
1.6353625 -6.41366 -0.18537223
2.5125766 -6.4291773 -0.17642009
-2.2451627 -6.3421259 -0.13394201
-2.1774487 -6.3997941 -0.14178061
-1.8186154 -6.3532934 -0.18272054
-1.7264657 -6.3241196 -0.16924763
-1.6557044 -6.3721385 -0.1764245
-1.5752076 -6.3836465 -0.17423248
-1.1645857 -6.3826551 -0.15205646
-1.0418365 -6.3728929 -0.14431089
-0.91969091 -6.3601441 -0.13633645
-0.84230113 -6.3773375 -0.13797283
-0.76307184 -6.3805799 -0.13627338
-0.64449698 -6.3855267 -0.1342473
-0.52543277 -6.3809462 -0.13028848
-0.3685827 -6.394218 -0.13087142
0.14096694 -6.3204684 -0.10982037
0.25813949 -6.3331308 -0.11395299
0.33630666 -6.3362026 -0.11566722
0.45584017 -6.3677788 -0.12561631
0.57484925 -6.3773589 -0.13045955
2.590131 -6.3946881 -0.17560124
2.6484823 -6.3145957 -0.16301811
4.3016686 -6.372551 -0.18775821
-2.2983663 -6.2472782 -0.11666155
-1.9528691 -6.2385054 -0.16453087
-1.8761905 -6.2624874 -0.16465151
0.95055658 -6.2327299 -0.10539961
1.6879463 -6.2956853 -0.15969706
1.7549218 -6.2379723 -0.15004385
1.8337936 -6.2238898 -0.15215564
2.756109 -6.2460785 -0.15809542
3.8815465 -6.2339926 -0.19755685
-2.4314187 -6.1389346 -0.10360837
-2.3673625 -6.1986485 -0.11148477
-2.007663 -6.147511 -0.14671147
-1.5080669 -6.1115537 -0.17736328
-1.3545288 -6.1337285 -0.17380416
-1.2694826 -6.1039233 -0.16128767
-1.1170095 -6.1219077 -0.15820742
-1.0371884 -6.108654 -0.15104008
-0.96142298 -6.1170201 -0.14998293
-0.88260704 -6.1036897 -0.14333713
0.061297081 -6.1175208 -0.13021922
0.1747779 -6.1421123 -0.13732183
0.24966137 -6.1251307 -0.13348961
1.8939416 -6.1482906 -0.13814282
1.9618932 -6.1013398 -0.1319344
2.8624403 -6.1759977 -0.15319896
2.926044 -6.1151099 -0.14640236
3.1241543 -6.1370244 -0.1724757
3.9350326 -6.150135 -0.18776393
-2.2599211 -6.0283031 -0.13934469
-2.1541994 -6.0851736 -0.14370263
-2.070955 -6.0867953 -0.13714194
-1.6505809 -6.0461502 -0.17004526
-1.5763738 -6.0668273 -0.17027891
-1.421473 -6.0809717 -0.16404927
-1.1879056 -6.0859256 -0.15229094
-0.80405587 -6.08777 -0.13626683
-0.72635496 -6.0735645 -0.12992609
-0.65260708 -6.0908704 -0.13229465
-0.57242328 -6.0426731 -0.11737072
-0.45974052 -6.0361166 -0.1131041
-0.27244678 -6.0115218 -0.10350573
-0.16216743 -6.0386667 -0.10970521
-0.051180914 -6.0777044 -0.11955428
0.35958755 -6.0716162 -0.12074006
0.46676329 -6.0024076 -0.10426152
2.0438228 -6.0979414 -0.13762045
2.1554551 -6.0576601 -0.1372382
2.2743554 -6.0374365 -0.14278376
2.3507464 -6.0150862 -0.14443922
2.9965668 -6.0697627 -0.14398468
3.2862799 -6.0810394 -0.1787287
3.4650977 -6.0514541 -0.1935662
3.534703 -6.0007715 -0.19141233
4.0378399 -6.06181 -0.18369156
4.8625717 -6.015594 -0.19798005
-4.361495 -5.9171247 -0.11362827
-2.3613305 -5.9619741 -0.13284087
-1.8495733 -5.9085236 -0.14975274
-1.7544315 -5.9896584 -0.16312534
-0.34561634 -5.9957948 -0.10032284
0.095355399 -5.9007897 -0.14281225
0.16860764 -5.9252744 -0.15008128
0.24171187 -5.9301 -0.15212762
0.31352916 -5.9070621 -0.14665842
0.7598958 -5.9623795 -0.10161805
0.83630419 -5.9753985 -0.10775483
0.94910938 -5.9759531 -0.1123724
1.0643126 -5.9873176 -0.12042272
1.1418598 -5.9950361 -0.12618697
1.2497692 -5.9622688 -0.12329543
1.3583294 -5.9325614 -0.12172806
1.4281201 -5.9029632 -0.11831295
1.5099264 -5.9217176 -0.12841904
2.405117 -5.9379134 -0.13129926
3.6452351 -5.9355106 -0.1916995
4.1434336 -5.9783678 -0.1814245
4.2125444 -5.921309 -0.179811
-5.1006775 -5.8013172 -0.10619867
-5.0329251 -5.8681417 -0.10745287
-4.5139413 -5.8188963 -0.11661506
-4.4561472 -5.8925185 -0.12173092
-3.8502254 -5.8000522 -0.10926032
-2.4122849 -5.878561 -0.11799371
-2.063086 -5.8277969 -0.14734006
-1.9560363 -5.867218 -0.14803451
-0.91204774 -5.8028722 -0.1351707
-0.84256727 -5.8267937 -0.13886976
-0.77174085 -5.8431025 -0.14066517
-0.66276622 -5.8463979 -0.13791174
-0.55447173 -5.8531709 -0.13663661
-0.4449873 -5.8422871 -0.13105386
-0.33716756 -5.8492241 -0.1309464
-0.26337206 -5.8112884 -0.119344
-0.15643638 -5.8244181 -0.12195361
-0.049470276 -5.8745666 -0.13535607
0.02276838 -5.8851981 -0.1382699
0.38182199 -5.8373713 -0.12841642
0.52292043 -5.8012624 -0.12143981
1.5748795 -5.8739696 -0.12048912
1.6482937 -5.8589563 -0.12181354
1.7557224 -5.8264847 -0.12154287
2.4722402 -5.8943934 -0.12756777
2.5553958 -5.8886943 -0.13454258
2.6209004 -5.8419766 -0.13039303
3.7363355 -5.8395877 -0.18368101
4.3460073 -5.8763618 -0.18954843
-5.2736335 -5.7087588 -0.11597943
-5.1954865 -5.7647138 -0.11362147
-4.7861638 -5.7212377 -0.1374166
-4.6800728 -5.7362118 -0.12511754
-4.5998216 -5.7814741 -0.12180185
-4.000844 -5.7168698 -0.11298335
-3.9216363 -5.7529178 -0.10943389
-3.3014112 -5.7052064 -0.1008544
-2.2648365 -5.7183423 -0.1389004
-2.1639872 -5.7724113 -0.14271027
-1.6322758 -5.7023201 -0.15110171
-1.5700407 -5.7511282 -0.15952146
-1.45724 -5.7534599 -0.15219021
-1.3502454 -5.7762647 -0.1512804
-1.2390558 -5.7795677 -0.14544141
-1.1286777 -5.7824869 -0.14004254
-1.0571032 -5.7935839 -0.13938117
-0.98153317 -5.7808652 -0.13224542
0.45093593 -5.7988734 -0.11910069
0.5918836 -5.7720571 -0.11518812
0.66031712 -5.7429829 -0.10920179
0.76501501 -5.7226605 -0.10721362
1.8630294 -5.7938805 -0.121719
1.935663 -5.7752361 -0.12303674
2.0035403 -5.7425561 -0.12065029
2.6852119 -5.7936096 -0.12598205
2.7538905 -5.7553277 -0.12461448
3.7943172 -5.7726893 -0.17771137
3.8628824 -5.722527 -0.17680395
4.4394522 -5.7769833 -0.18417668
4.5160365 -5.7295051 -0.18638885
-4.933816 -5.6115351 -0.1402384
-4.8699431 -5.6781125 -0.14208007
-4.2363 -5.6018071 -0.12350261
-4.143836 -5.6218324 -0.11442423
-4.0615029 -5.6543298 -0.10930026
-3.5332637 -5.6174755 -0.11171043
-3.4526129 -5.6419277 -0.10643005
-3.3769758 -5.6737819 -0.1035614
-2.3175299 -5.6476498 -0.12668002
-1.9074044 -5.6061001 -0.14841902
-1.8420477 -5.6403928 -0.151721
-1.7350967 -5.6648684 -0.14926666
-0.5310263 -5.6056743 -0.13487577
-0.4617084 -5.6070666 -0.13350344
-0.35862797 -5.6193895 -0.13492167
-0.2542766 -5.6105976 -0.13069081
0.86750114 -5.6881413 -0.10171175
0.93803024 -5.6812372 -0.10289288
1.0442232 -5.6716681 -0.10538363
1.1470352 -5.6439271 -0.10321295
1.2178056 -5.636333 -0.10518622
1.3551086 -5.6011786 -0.10417747
2.0576937 -5.6726542 -0.10793853
2.1642752 -5.6400995 -0.10977161
2.838587 -5.6621008 -0.11281359
2.9405851 -5.6049652 -0.11169159
3.9368718 -5.6803293 -0.17849016
4.0528803 -5.6233292 -0.18347943
4.5765319 -5.6617274 -0.18286788
4.6818342 -5.6485744 -0.19593346
-6.0370445 -5.5009742 -0.10402822
-5.0081978 -5.5569053 -0.14213777
-4.6026826 -5.5019097 -0.15817225
-4.506742 -5.5237656 -0.14794147
-4.4373941 -5.5773201 -0.14752412
-4.3357811 -5.5892315 -0.13517809
-3.7776954 -5.5417614 -0.12885833
-3.6527824 -5.576683 -0.11908436
-3.1610146 -5.5409231 -0.12436831
-3.0575614 -5.5967484 -0.12390709
-2.9605329 -5.5810838 -0.10868311
-2.4289403 -5.5282393 -0.10899949
-2.3712494 -5.5822272 -0.11610854
-2.1172631 -5.5437937 -0.15193856
-2.0504298 -5.5733528 -0.15311265
-1.9735876 -5.5749817 -0.14627695
-1.0037066 -5.5009375 -0.12354827
-0.93410903 -5.501555 -0.12021971
-0.83570445 -5.5389366 -0.12644482
-0.73232412 -5.5446658 -0.12385654
-0.66601038 -5.5689812 -0.12845755
-0.59827465 -5.5837784 -0.13051128
-0.15018138 -5.5899887 -0.12365139
-0.046892654 -5.5684757 -0.11684608
0.055529714 -5.5420051 -0.10921425
0.15770701 -5.5422006 -0.10981119
0.26114535 -5.5648308 -0.11753911
0.36497307 -5.5797815 -0.12353337
0.4340525 -5.5817585 -0.12553799
0.53476298 -5.5515575 -0.11936796
0.63476938 -5.5207863 -0.11350298
2.2607126 -5.581398 -0.10461688
2.3354647 -5.5682893 -0.10897875
3.0410969 -5.5455627 -0.11049175
3.1652927 -5.527874 -0.12199342
3.2481236 -5.5142536 -0.12958729
3.3433144 -5.5196004 -0.14318645
3.4475944 -5.5370393 -0.16086662
4.1620159 -5.5559692 -0.18595982
4.745873 -5.5846982 -0.19413972
4.8227839 -5.5358677 -0.19717932
5.4231033 -5.5026755 -0.19595706
-5.4419494 -5.4717517 -0.10461903
-5.1144948 -5.4017649 -0.13295484
-5.0784535 -5.4974751 -0.14289582
-4.7581792 -5.4117723 -0.16575766
-4.6793003 -5.4558325 -0.16149223
-3.9284246 -5.4690614 -0.13538229
-3.842983 -5.4912996 -0.12778592
-3.407069 -5.416841 -0.1294477
-3.3517985 -5.4771862 -0.13508499
-3.2708113 -5.4954114 -0.12840223
-2.491708 -5.4869895 -0.10578549
-2.224457 -5.4208379 -0.13110292
-2.1648343 -5.4658527 -0.13651836
-1.7031702 -5.440834 -0.15531933
-1.6225064 -5.4157219 -0.14148831
-1.5571728 -5.439949 -0.1429069
-1.2640091 -5.4073515 -0.11233103
-1.1631914 -5.4255552 -0.11111915
-1.0657165 -5.4599218 -0.11518669
0.15401883 -5.4125891 -0.13743854
0.25423324 -5.41752 -0.14010102
0.42032555 -5.4052348 -0.13948667
0.69833916 -5.4793868 -0.10379088
2.4662206 -5.4971962 -0.10547042
3.5410571 -5.460042 -0.1571154
4.2162652 -5.4865537 -0.18049312
4.8865194 -5.4717774 -0.19581461
5.4917493 -5.4370308 -0.19639909
-6.1560926 -5.3385191 -0.10030448
-5.5730433 -5.3346872 -0.10411811
-5.1511283 -5.3082433 -0.12369895
-4.8379998 -5.3680601 -0.1704787
-4.2448592 -5.3353252 -0.1558373
-4.1570425 -5.3588204 -0.14714849
-4.0592756 -5.3677216 -0.13442636
-3.9757302 -5.3937678 -0.12735593
-3.5435832 -5.3381205 -0.13148034
-3.4686005 -5.3671641 -0.12720501
-2.3314934 -5.3064513 -0.11344373
-2.2783229 -5.3634663 -0.12214291
-1.8231865 -5.358573 -0.14343214
-1.7533345 -5.368751 -0.13982105
-1.4345276 -5.3846626 -0.11798012
-1.3261173 -5.3741894 -0.10718143
-0.43700913 -5.3071141 -0.11031199
-0.33992547 -5.3273582 -0.11430877
-0.24177624 -5.3347778 -0.11490166
-0.14374994 -5.3560791 -0.12030107
-0.045095131 -5.355021 -0.1194247
0.053803343 -5.3760729 -0.12584549
0.3531937 -5.3996964 -0.13636649
0.48135132 -5.340096 -0.12140095
0.54490495 -5.3139205 -0.11536479
3.6601884 -5.3512545 -0.15087759
4.2212243 -5.3554764 -0.15611041
4.9474325 -5.3386078 -0.18255067
5.560277 -5.3711829 -0.19704771
-5.6242161 -5.2527518 -0.10014451
-5.2063427 -5.2348542 -0.12070072
-4.8614779 -5.2625966 -0.15612781
-4.2904143 -5.2586203 -0.14827216
-3.7451217 -5.2138715 -0.13461447
-3.6421585 -5.2729325 -0.13184142
-2.9440758 -5.2350616 -0.10042155
-2.4490445 -5.2216206 -0.10547197
-2.3852947 -5.2526565 -0.10587955
-1.867563 -5.2754841 -0.12486613
-1.0199091 -5.2252398 -0.10994017
-0.95322585 -5.2242713 -0.1059109
-0.85507876 -5.2308211 -0.1028347
-0.75821775 -5.2434726 -0.10212672
-0.69471043 -5.2598801 -0.10441005
-0.49998733 -5.2780175 -0.10322678
0.05221786 -5.215847 -0.14069343
0.14813256 -5.2057319 -0.1380614
0.24479738 -5.2199802 -0.14371574
0.6055308 -5.266489 -0.10308754
3.7444494 -5.2633367 -0.14476144
5.0354934 -5.2365689 -0.17934036
5.6147356 -5.2919559 -0.19369054
6.031292 -5.2785864 -0.1665405
-6.293961 -5.1926427 -0.10247481
-5.7573853 -5.1180716 -0.10175049
-5.6949739 -5.1892786 -0.10200965
-5.2404041 -5.1411648 -0.11151278
-4.3672838 -5.1560044 -0.14107317
-3.7854197 -5.1355786 -0.12453175
-3.2160459 -5.1131363 -0.10957158
-3.1421878 -5.1346607 -0.10406947
-3.0717106 -5.1608944 -0.10035026
-2.632092 -5.1127257 -0.10075271
-2.5397527 -5.165185 -0.10227334
-1.0796911 -5.1913681 -0.10347152
-0.13858825 -5.1588278 -0.12326175
-0.043749928 -5.1952786 -0.13416874
3.7728662 -5.1676369 -0.12922299
3.8520496 -5.1421881 -0.13600194
4.1601505 -5.1466136 -0.10721195
5.0569 -5.1310992 -0.16532242
5.6687641 -5.1490407 -0.18112069
6.0578814 -5.1717749 -0.15619934
6.8435316 -5.150897 -0.18218565
7.5797701 -5.1417313 -0.1936152
8.302145 -5.1955247 -0.19895458
10.035284 -5.1374221 -0.1992625
-5.8472509 -5.070694 -0.10929239
-5.2840457 -5.0580497 -0.10569525
-4.8275342 -5.0986862 -0.12309444
-4.3984666 -5.0026488 -0.11779273
-3.8303316 -5.0649805 -0.11696887
-3.4141116 -5.0083947 -0.11514378
-3.367177 -5.0723791 -0.12230957
-3.2868845 -5.0859842 -0.11361909
-0.26202327 -5.0903692 -0.10326278
3.9231935 -5.0409794 -0.12654388
4.2582111 -5.0735989 -0.10869646
4.3572316 -5.0014801 -0.11098361
5.1487575 -5.0974565 -0.17481482
5.2510824 -5.072504 -0.18769312
5.7167678 -5.003315 -0.16766477
6.1127143 -5.0900531 -0.15396237
6.9250078 -5.0801177 -0.18673861
7.579349 -5.0065532 -0.17964566
8.3117332 -5.0604506 -0.18806183
9.0975828 -5.089046 -0.1895417
-5.8850045 -4.9780493 -0.10272348
-4.8373189 -4.9848623 -0.10566473
-4.4424891 -4.9292164 -0.11158061
-3.8623335 -4.9789128 -0.10452521
-3.4624546 -4.947557 -0.10912585
3.991442 -4.9379001 -0.11674833
4.0642776 -4.9035006 -0.12171757
4.3900967 -4.9158983 -0.10067594
5.2766838 -4.9733381 -0.17614973
5.7459745 -4.9054918 -0.15847218
6.1049151 -4.9577894 -0.13524163
6.9357281 -4.9580383 -0.17438102
8.3529577 -4.9458809 -0.18396175
9.1037054 -4.9465766 -0.17926157
4.1111231 -4.8377576 -0.11656308
5.2738023 -4.8496289 -0.15617609
5.7667332 -4.8019547 -0.14730501
6.1672926 -4.883903 -0.13574839
6.2647629 -4.8370175 -0.1457088
6.9695759 -4.8539319 -0.16802466
7.6018014 -4.8882713 -0.1711812
8.3503933 -4.8067541 -0.17140877
9.1405058 -4.8220315 -0.17499149
9.8067617 -4.8692694 -0.15030909
4.1594543 -4.7744598 -0.1123724
5.3025227 -4.7571063 -0.14671052
6.3034439 -4.744391 -0.14042854
7.0587044 -4.7882667 -0.17514491
7.6288056 -4.7741456 -0.16409302
9.8588476 -4.7450075 -0.14913583
11.189974 -4.7233033 -0.19328535
5.3545675 -4.6863174 -0.14486241
5.7788863 -4.6930218 -0.13417709
6.3347974 -4.6471453 -0.13360095
6.4415836 -4.6047974 -0.14642012
7.0891452 -4.6827483 -0.16858494
7.642374 -4.6529231 -0.15445364
8.2642593 -4.6228981 -0.14267194
9.0932827 -4.6551776 -0.15572846
9.9343185 -4.6318378 -0.15211308
5.3773246 -4.5907655 -0.13439751
5.426549 -4.5186834 -0.13235593
5.7877545 -4.5833454 -0.12063313
7.0788407 -4.5519862 -0.15286684
7.6672368 -4.5398579 -0.14763272
9.1370163 -4.536726 -0.15341425
9.9865675 -4.5076313 -0.15146434
11.267817 -4.5938449 -0.19639301
12.337707 -4.5071716 -0.18302906
4.8667288 -4.4752965 -0.10572219
5.4460769 -4.4227486 -0.12175679
5.8428659 -4.4543381 -0.11284041
6.4587679 -4.4981818 -0.13655853
6.5136032 -4.4184976 -0.13656938
7.0910602 -4.4376221 -0.14286137
7.7124758 -4.439549 -0.14550471
8.2296734 -4.471664 -0.12475073
9.2053242 -4.4304705 -0.15579665
10.105724 -4.412734 -0.16207516
5.9192023 -4.3422689 -0.11149549
6.5163174 -4.3043656 -0.12383699
7.101964 -4.323904 -0.13295221
7.735199 -4.3269496 -0.13888299
8.2660999 -4.3607426 -0.12123883
11.108922 -4.3706326 -0.16425812
12.39775 -4.357172 -0.18378758
5.9363217 -4.2436085 -0.1018362
6.5663342 -4.2224236 -0.12324643
7.1236086 -4.2179694 -0.12588668
8.2685928 -4.2329898 -0.11140239
10.05445 -4.2439971 -0.14493918
11.267109 -4.2737284 -0.17996085
6.5674992 -4.1099749 -0.11092567
7.1469302 -4.1140027 -0.11954701
7.6379504 -4.150146 -0.10735035
8.9854164 -4.1894159 -0.10685813
9.1378126 -4.1245294 -0.12492323
10.10566 -4.120038 -0.14490891
12.2729 -4.1445546 -0.15978777
15.478522 -4.1877575 -0.19433284
7.1607661 -4.005621 -0.11140478
11.158236 -4.0762911 -0.15613246
17.382971 -4.0216956 -0.18558145
11.219914 -3.9432235 -0.15796876
12.167783 -3.9431462 -0.13889408
15.317421 -3.942806 -0.17126751
9.8927116 -3.892134 -0.10233986
13.492113 -3.828882 -0.13927484
19.892756 -3.8358648 -0.18764985
9.9706688 -3.7819755 -0.10731661
11.065304 -3.7367501 -0.12821269
12.140648 -3.7701254 -0.12887514
15.353757 -3.7515888 -0.17007506
17.138868 -3.7439339 -0.15732443
15.022487 -3.4755781 -0.12927258
16.953108 -3.4856389 -0.13509536
19.287113 -3.4738045 -0.13252342
19.065607 -3.1925211 -0.11033165
-1.5561458 -14.523719 -0.043425322
-1.3472255 -14.221721 -0.0094586611
3.8256691 -14.268942 -0.060970664
-1.166404 -14.165012 -0.0018048286
3.9049644 -13.880424 -0.023603559
8.5650806 -13.756024 -0.030879855
4.5616035 -13.609982 -0.016717672
8.7393751 -13.65893 -0.031911969
-1.2802703 -13.514921 -0.086740375
-0.11450856 -13.597825 -0.089414954
0.71838754 -13.534817 -0.084220648
1.3881301 -13.537064 -0.090553403
1.5560262 -13.533243 -0.092231274
1.7265975 -13.547422 -0.096275687
4.7276211 -13.550328 -0.016430378
6.0600224 -13.507767 -0.064347267
6.2732735 -13.535206 -0.076335073
6.5001225 -13.58454 -0.091264367
9.118968 -13.508964 -0.039770484
9.3957481 -13.556687 -0.0582546
9.6312876 -13.538095 -0.069604874
12.402856 -13.549439 -0.030185342
12.690496 -13.526094 -0.045046449
13.363649 -13.559731 -0.085937023
15.816963 -13.503363 -0.0005967617
-2.6198759 -13.422255 -0.09844327
-2.1188791 -13.481294 -0.095081925
-1.9381145 -13.403076 -0.082889557
-1.4380859 -13.42185 -0.077769279
-0.44336769 -13.430446 -0.070649743
4.8750334 -13.439503 -0.010618925
5.057272 -13.424884 -0.015847564
5.2417016 -13.412458 -0.021603584
5.6348863 -13.434875 -0.039397359
5.8404531 -13.458831 -0.050250053
8.8696651 -13.494344 -0.025563717
9.8221712 -13.453278 -0.073648214
10.097252 -13.47905 -0.091058493
12.053998 -13.497705 -0.0074981451
12.968728 -13.48659 -0.058622718
13.634217 -13.498369 -0.098237991
16.181017 -13.473922 -0.019309998
16.559752 -13.448141 -0.03923595
-2.781713 -13.375026 -0.096769691
-1.7656888 -13.368608 -0.076136827
-1.5953709 -13.340018 -0.070335984
1.2032331 -13.348629 -0.066557288
5.4176159 -13.375371 -0.024834752
16.891806 -13.376686 -0.054701805
17.34129 -13.389192 -0.080806732
-0.92757565 -13.254309 -0.052996278
-0.76534456 -13.277291 -0.054469585
-0.60051918 -13.250419 -0.050342202
0.86790526 -13.26871 -0.054204583
1.026852 -13.204947 -0.048097134
10.467236 -13.279804 -0.097432017
-1.0857848 -13.185958 -0.046434522
-19.246832 -10.041846 -0.06639576
-19.248432 -9.7436342 -0.05666244
-19.421387 -9.5331812 -0.061056376
-16.255842 -9.5255928 -0.069522262
-16.431667 -9.3592701 -0.075273275
-19.391953 -9.2247505 -0.049460649
-19.505587 -8.9865379 -0.049598217
-3.1635189 -8.9362946 -0.036459446
-16.010881 -8.8607893 -0.024378061
-14.216806 -8.8071432 -0.079924345
-16.003719 -8.6016302 -0.013516784
-19.125956 -8.5282831 -0.010997891
-14.22481 -8.57201 -0.06898737
-12.36479 -8.5280819 -0.087136507
-7.0102496 -8.5922327 -0.045954943
-14.394176 -8.4346943 -0.076115131
-7.0585351 -8.437562 -0.033618808
-16.035566 -8.3664007 -0.0066905022
-7.157639 -8.3454533 -0.032750487
-19.089947 -8.2324915 -4.6491623e-05
-12.236055 -8.2192364 -0.057528138
-7.224577 -8.21696 -0.025343657
-3.0356565 -8.2513351 -0.025170088
-2.679594 -8.2049799 -0.09603548
-7.3334394 -8.1369047 -0.027098536
-3.1019478 -8.1220694 -0.0082095861
-2.7567003 -8.1022863 -0.082530499
-14.215369 -8.0968943 -0.045523405
-12.322598 -8.0593853 -0.055818319
-2.8477962 -8.0444422 -0.077949524
-12.438814 -7.9188657 -0.058085918
-2.9240367 -7.9479375 -0.065950632
-12.608889 -7.8110571 -0.067246079
-3.0010939 -7.857996 -0.05537951
-3.068548 -7.7475824 -0.040873051
-3.1327934 -7.6343875 -0.025902748
-12.534191 -7.5532274 -0.046306133
-2.7633362 -7.5111313 -0.071801424
-3.1857219 -7.4996004 -0.0066744089
-3.0477633 -7.427175 -0.076685309
-2.9357729 -7.4123468 -0.065759659
-12.567573 -7.3643422 -0.039142013
-3.141778 -7.3961506 -0.078177094
-2.822011 -7.3890896 -0.053403139
-11.138958 -7.2852464 -0.055694938
-3.1871819 -7.2539878 -0.056083441
-2.5526798 -7.2107992 -0.090504885
-2.4534521 -7.2110019 -0.083778858
-2.354322 -7.2089887 -0.076862454
-2.7322643 -7.154099 -0.092333078
-2.6401834 -7.1763849 -0.089951158
-11.114552 -7.0758071 -0.040024638
-3.2163348 -7.0826898 -0.027701855
-2.9912217 -7.0417218 -0.090796351
-3.2577868 -6.9459443 -0.0067288876
-10.988852 -6.8074632 -0.010900855
-2.9974473 -6.822154 -0.049399137
-10.283578 -6.7257996 -0.074441433
-11.035091 -6.6498547 -0.005907774
-3.2183142 -6.6480255 -0.03576839
-3.1262062 -6.665401 -0.030790806
-3.024883 -6.6610937 -0.021148682
-2.823684 -6.6473165 -0.085385084
-10.212104 -6.5012856 -0.051148176
-3.2728934 -6.5541492 -0.023259163
-3.3445511 -6.4966474 -0.01933372
-2.9132075 -6.4151735 -0.046632648
-2.8458779 -6.4771838 -0.053032994
-3.1478882 -6.3038192 -0.046727777
-3.0350599 -6.3691416 -0.048784196
-10.150209 -6.2879343 -0.029892921
-3.2129765 -6.2410693 -0.040903926
-2.6459901 -6.229002 -0.064421773
-2.5795054 -6.2860651 -0.070672393
0.63828403 -6.2245545 -0.093278289
-7.0402846 -6.1052842 -0.010377288
-6.9176335 -6.1494827 -0.00016534328
-6.5558739 -6.1228762 -0.056122661
-6.4332132 -6.1580682 -0.044855475
-6.2553782 -6.1369176 -0.02014792
-6.1464782 -6.1801386 -0.01202774
-5.5040274 -6.107059 -0.020203114
-5.3998146 -6.1415439 -0.012153149
-5.2925754 -6.1708813 -0.003247261
-5.1071553 -6.1049414 -0.063191891
-5.0017076 -6.1304293 -0.053860545
-4.8747153 -6.1269855 -0.03768611
-3.2394907 -6.1069646 -0.017509222
0.74855816 -6.1756134 -0.084044814
0.86435688 -6.1758351 -0.087888598
-10.039668 -6.0500026 -0.0019108057
-7.1704564 -6.0653968 -0.022196174
-6.6366405 -6.047328 -0.057534337
-5.8645358 -6.0434103 -0.057147264
-5.7590089 -6.08248 -0.048859835
-5.634738 -6.099658 -0.035483599
-5.4196825 -6.013473 -0.089877129
-5.3094735 -6.038794 -0.07919991
-5.2081194 -6.0724092 -0.071133018
-4.6951761 -6.052525 -0.0044029951
-4.4369292 -6.0194645 -0.054883957
-4.335309 -6.0355163 -0.04515028
-4.2318811 -6.0470028 -0.034659863
-4.1181135 -6.0411439 -0.020213246
-3.998673 -6.0236764 -0.0033371449
-3.2967224 -6.0345235 -0.0094624758
-2.7413166 -6.0366521 -0.032575607
-2.6481209 -6.027091 -0.021770597
-2.4866648 -6.0598187 -0.090804935
-8.359127 -5.918251 -0.043749571
-8.1808872 -5.9443269 -0.024209499
-8.0007963 -5.9650717 -0.0042014122
-7.2721167 -5.9996405 -0.028008461
-6.8180532 -5.9125667 -0.065523505
-6.7450776 -5.9960876 -0.065569997
-5.9261618 -5.9586153 -0.053948045
-5.5195656 -5.9749832 -0.097515345
-4.7096162 -5.9194736 -0.072858572
-4.6153655 -5.9496422 -0.065684199
-4.5313869 -5.9920106 -0.062060118
-4.1300879 -5.9015484 -0.081213713
-4.0391622 -5.9253249 -0.074164629
-3.9435892 -5.9406972 -0.065253973
-3.8269095 -5.9215961 -0.047711968
-3.7222826 -5.9179935 -0.034697533
-3.6217887 -5.9183784 -0.023138881
-3.4353862 -5.9367304 -0.0056716204
-3.3601446 -5.9749022 -0.0047652721
-2.5234871 -5.9406142 -0.067535162
0.53853971 -5.9745426 -0.098462343
0.64855075 -5.9635801 -0.098486304
-8.4358177 -5.8182425 -0.044590116
-7.3280406 -5.8959322 -0.024418235
-7.0502372 -5.8165855 -0.085523248
-6.9335642 -5.8650122 -0.075376272
-5.9599323 -5.8470664 -0.04384315
-5.6550264 -5.8275108 -0.094774723
-5.5713177 -5.8842463 -0.091442585
-4.9231906 -5.8850355 -0.095385432
-4.8091464 -5.894413 -0.081785083
-4.2281141 -5.886282 -0.09092629
-3.5106838 -5.8984299 -0.0067869425
-3.3685939 -5.8213058 -0.054713368
-3.2475631 -5.8586097 -0.04845649
-3.1172945 -5.876605 -0.037727594
-3.0202923 -5.8667884 -0.025330544
-2.9119921 -5.8314238 -0.006717205
-2.7604373 -5.8855429 -0.0027120113
-2.5704954 -5.8504167 -0.051953793
-9.0943317 -5.7896829 -0.0029731989
-8.5570107 -5.7479386 -0.053728223
-7.3841233 -5.7930188 -0.021159053
-7.170311 -5.7690272 -0.0964607
-6.1577878 -5.7510824 -0.058000207
-6.0529103 -5.7940302 -0.049364805
-5.7165346 -5.7478404 -0.092078686
-3.7446275 -5.7942767 -0.094768167
-3.6425536 -5.791234 -0.081489801
-3.5369546 -5.7797503 -0.066364527
-3.4518597 -5.7995973 -0.060128093
-3.2179611 -5.7220759 -0.094370008
-3.1304731 -5.7302108 -0.085796595
-2.6186192 -5.7664604 -0.0381037
-2.453037 -5.7747655 -0.097602725
-9.1503992 -5.6685638 -0.0006121397
-8.8174734 -5.6134281 -0.075487971
-8.7052231 -5.6935039 -0.067815781
-7.4233775 -5.6778336 -0.014755845
-7.1962857 -5.6456556 -0.086675286
-6.2261147 -5.6732554 -0.057528615
-5.8626914 -5.6119471 -0.093878388
-5.7726316 -5.6633129 -0.088197112
-3.0188949 -5.6911058 -0.064588428
-2.9263053 -5.6842227 -0.05269146
-2.8056238 -5.6184158 -0.025181532
-2.7285268 -5.6362791 -0.020812631
-2.6592364 -5.6697721 -0.020916462
-2.5296023 -5.6629329 -0.079313159
-9.2458248 -5.5716252 -0.0049180984
-7.8105173 -5.5298357 -0.051076889
-7.6842494 -5.5834641 -0.039512873
-7.486177 -5.5813928 -0.01345861
-6.2895193 -5.591116 -0.056082368
-5.9282637 -5.5367179 -0.09308517
-5.3587475 -5.5221953 -0.099977136
-5.289957 -5.5870824 -0.099819303
-2.8570218 -5.5496426 -0.08937943
-2.7563102 -5.5196629 -0.070973158
-2.6379163 -5.5357876 -0.06147337
1.281929 -5.5988793 -0.098885894
1.4480901 -5.5374179 -0.093312621
2.390146 -5.5078897 -0.099893332
-9.3099604 -5.4554482 -0.0043302774
-8.8607712 -5.4891429 -0.071051478
-7.9492164 -5.4826298 -0.065121293
-7.0922246 -5.4245486 -0.048914909
-6.357305 -5.4449325 -0.047783494
-2.5442622 -5.4246349 -0.09656775
0.76326054 -5.4535012 -0.098839164
0.86151558 -5.4249735 -0.094891548
0.96443176 -5.4254355 -0.09995234
1.5402167 -5.4747901 -0.083174109
1.6354727 -5.4274912 -0.077978492
2.5223036 -5.4421191 -0.098317742
-9.5773048 -5.3003001 -0.02601254
-9.3917704 -5.3494339 -0.0068120956
-8.8845577 -5.3539219 -0.063484073
-8.0153151 -5.3840694 -0.064988852
-6.4658589 -5.3344617 -0.049975038
-6.0707264 -5.3966184 -0.095234394
-5.4816365 -5.3778281 -0.096711755
-2.7401934 -5.3227081 -0.095231891
-2.6735396 -5.35391 -0.094614983
-2.5985513 -5.3677902 -0.089116931
1.0559249 -5.3640075 -0.087341428
1.1551626 -5.3464041 -0.088131428
1.254651 -5.3292542 -0.089664459
1.734571 -5.3943849 -0.077351809
1.842532 -5.3869004 -0.084867954
1.9492249 -5.3736277 -0.091223598
2.0543261 -5.3535547 -0.096248507
2.5726421 -5.3765388 -0.088223338
2.6434932 -5.3545861 -0.091215849
2.7032666 -5.3102407 -0.087790966
-8.8806372 -5.2038732 -0.051422
-7.9899473 -5.2256894 -0.047378898
-7.0737028 -5.2738686 -0.030598283
-6.668066 -5.2312546 -0.067144752
-6.5809379 -5.2948346 -0.061843872
-6.2083321 -5.2515478 -0.096985459
-2.8449113 -5.2843928 -0.099228501
-0.6279785 -5.2509699 -0.099217057
-0.56313592 -5.2558241 -0.098466992
0.66650712 -5.2296224 -0.094238639
0.76228583 -5.2128468 -0.093168914
1.3469579 -5.2825785 -0.082853913
1.4379776 -5.2345929 -0.076180518
1.5354158 -5.2111959 -0.077362418
2.1676271 -5.2585516 -0.083335519
2.2566776 -5.2003231 -0.078035235
2.7630181 -5.2665095 -0.084748983
2.8349938 -5.245965 -0.088931561
-9.6597433 -5.1918893 -0.028865218
-7.2066722 -5.1023145 -0.031765461
-7.126996 -5.1785574 -0.028242826
-6.6828766 -5.111455 -0.055743694
-3.0069566 -5.1963563 -0.099766016
-1.2346864 -5.1392722 -0.098375857
-1.1385521 -5.1557183 -0.096661687
0.85537797 -5.1806488 -0.08784759
0.94658655 -5.1415763 -0.080981374
1.5956472 -5.1799397 -0.073718548
1.6612921 -5.1664929 -0.075717449
1.719888 -5.1314511 -0.071358204
2.3403668 -5.1320601 -0.070173681
2.8771009 -5.1709228 -0.076793194
2.9317942 -5.1200919 -0.072161913
-8.9207649 -5.0811553 -0.04740572
-7.9421201 -5.0561557 -0.025966525
-7.2728229 -5.0161166 -0.032606602
-6.7608066 -5.0405855 -0.05934608
-6.2351437 -5.0166187 -0.071683049
-2.7421906 -5.019474 -0.092182279
-2.6919703 -5.0748 -0.099116206
-1.9159267 -5.0166192 -0.059171319
-1.8531253 -5.0370517 -0.058325529
-1.5003388 -5.0079417 -0.080912948
-1.4447598 -5.0472369 -0.087592363
-1.3503801 -5.069067 -0.086384416
-0.75683594 -5.0161448 -0.09565413
-0.63181603 -5.0208173 -0.091721058
-0.4447816 -5.0238199 -0.086391449
-0.35377827 -5.0552068 -0.093941808
0.359512 -5.0229735 -0.083985806
0.51314646 -5.0042109 -0.082266569
1.0649788 -5.0801735 -0.069676042
1.1521646 -5.0321279 -0.061101317
1.2473673 -5.0205965 -0.064423084
1.4071397 -5.0017605 -0.071256757
1.7756536 -5.0893865 -0.065041661
1.8679614 -5.0525351 -0.06406337
2.4355192 -5.0899673 -0.070740223
2.5275025 -5.0415325 -0.069926083
2.9885626 -5.0736036 -0.069047213
3.0618441 -5.0549107 -0.074784994
-7.9422874 -4.9201531 -0.014265895
-7.3391819 -4.9298954 -0.033706427
-6.7492042 -4.9040499 -0.04265213
-2.8511117 -4.9270391 -0.084616184
-2.7994819 -4.9779496 -0.089804173
-2.3103108 -4.9258261 -0.079691768
-2.1347876 -4.9411335 -0.062842727
-2.0463912 -4.9869051 -0.065099239
-1.967772 -4.9683027 -0.051553965
-1.6446669 -4.9331951 -0.072557449
-1.5601531 -4.9839616 -0.079276562
-1.1456645 -4.9010801 -0.08313179
-1.0589271 -4.9390678 -0.088856816
-0.93351388 -4.9437537 -0.082505941
-0.84163618 -4.956924 -0.081453443
-0.53526908 -4.995739 -0.080341816
0.45040187 -4.9967437 -0.07803607
0.57434332 -4.9952421 -0.081543207
0.66328657 -4.9608679 -0.074294865
0.75566381 -4.9548321 -0.076501846
0.84148902 -4.9083371 -0.066410542
1.3397173 -4.9968638 -0.064427853
1.4667569 -4.9781685 -0.069390059
1.554432 -4.9379616 -0.065516114
1.649572 -4.9216566 -0.069688678
1.9512813 -4.9929357 -0.056456327
2.0433159 -4.9568424 -0.056716502
2.1335123 -4.9164991 -0.056102514
2.2713387 -4.9006371 -0.068281651
2.6393332 -4.9565897 -0.063212097
3.1350977 -4.96702 -0.065161169
-7.351357 -4.8080306 -0.023787022
-6.2237382 -4.882669 -0.053564429
-4.4536147 -4.8210812 -0.094001532
-3.8943372 -4.8947568 -0.092708945
-3.4786859 -4.8429456 -0.088887572
-2.8995214 -4.871593 -0.078125834
-2.3501704 -4.8547134 -0.066030979
-2.2181733 -4.8846383 -0.057622552
-1.7491168 -4.8461866 -0.058056414
-1.313874 -4.812778 -0.069196105
-1.2575399 -4.8397641 -0.072836876
-1.1961592 -4.8475251 -0.070462704
-0.27681094 -4.8021502 -0.071748376
-0.15889828 -4.8133297 -0.07365334
-0.04062539 -4.8242416 -0.076418042
0.04838302 -4.8237829 -0.076321363
0.19669643 -4.8257022 -0.078148723
0.95818055 -4.8672676 -0.060351908
1.0468872 -4.8452764 -0.05918932
1.1044933 -4.8239212 -0.056568027
1.6991899 -4.8702259 -0.059828281
1.7520447 -4.8300405 -0.053737044
1.8095024 -4.8034511 -0.052220464
2.193022 -4.8882375 -0.055570841
2.3459554 -4.8263206 -0.058109105
2.7387996 -4.8520632 -0.051011205
3.2011909 -4.8703051 -0.053003073
4.4447556 -4.8556519 -0.098725438
-6.7081561 -4.7493658 -0.019813418
-6.1929841 -4.7367568 -0.031240106
-4.707778 -4.7335596 -0.043238401
-3.8472607 -4.7154613 -0.049636364
-3.4877431 -4.7317286 -0.06634438
-2.9515781 -4.7575393 -0.05854851
-2.5391622 -4.7164097 -0.055265605
-2.4436111 -4.7466102 -0.050069451
-2.3840721 -4.7742352 -0.049405217
-2.0018327 -4.7125721 -0.048334122
-1.9306896 -4.7049484 -0.037916899
-1.8530638 -4.764246 -0.045887053
-1.6014538 -4.7068729 -0.063834429
-1.5566283 -4.7664323 -0.077147484
-1.4644337 -4.7809887 -0.072794139
-1.3697311 -4.7851257 -0.065550685
-0.91876352 -4.7070465 -0.067093015
-0.83515513 -4.7416382 -0.073249638
-0.74509364 -4.7406321 -0.068058252
-0.65875226 -4.7615347 -0.070721209
-0.54101658 -4.7722759 -0.069400251
-0.45165682 -4.7678261 -0.064902544
-0.36457598 -4.7871504 -0.068801761
-0.21729527 -4.7946072 -0.068286896
-0.099134706 -4.7859983 -0.064201355
0.13657638 -4.7996197 -0.068951607
0.25374424 -4.7806816 -0.064327359
0.34076303 -4.7609615 -0.059693933
0.42499268 -4.7148552 -0.046865344
1.1606698 -4.7974892 -0.052524805
1.247301 -4.7694211 -0.050643623
1.3640544 -4.7371321 -0.050577521
1.4517021 -4.7126513 -0.051041245
1.8694893 -4.7836466 -0.053128123
1.9429395 -4.7133288 -0.041698873
2.4527535 -4.7460418 -0.051168859
2.8499498 -4.771049 -0.047048628
2.9382043 -4.7189288 -0.047425389
3.2478769 -4.7482147 -0.032939494
3.3507564 -4.7099476 -0.040233016
4.5320683 -4.7713561 -0.098244071
-6.7261004 -4.6390386 -0.01084733
-5.0648699 -4.6151257 -0.0041610003
-4.3620872 -4.6070962 -0.040860534
-3.8910265 -4.651217 -0.044122815
-3.5452328 -4.628624 -0.053611457
-3.0453758 -4.6493258 -0.047184467
-2.64605 -4.6382904 -0.050473213
-2.0701637 -4.6341805 -0.034883738
-1.7056148 -4.6360974 -0.053781629
-1.6567469 -4.6799712 -0.061543822
-1.1703482 -4.6208301 -0.057601571
-1.0618126 -4.6718674 -0.0655334
-0.97362739 -4.6813931 -0.062418103
0.48071903 -4.6879787 -0.039869666
0.56301326 -4.6451712 -0.028986394
0.64911687 -4.6379442 -0.030258775
0.76517862 -4.6343508 -0.034816146
0.85485756 -4.6429968 -0.0426687
0.96757412 -4.6150913 -0.040835738
1.527606 -4.652626 -0.040316761
2.048245 -4.6417971 -0.034299195
2.5103378 -4.6452112 -0.033068895
2.9867911 -4.6681108 -0.042682052
3.0256414 -4.6032233 -0.033411503
3.3948798 -4.6499147 -0.034129739
3.4680789 -4.6296167 -0.041379213
3.5396297 -4.6060596 -0.047902942
4.1697731 -4.6691866 -0.094007015
4.5804663 -4.6476746 -0.084798932
4.6508994 -4.6045589 -0.089468241
-4.6673841 -4.5789957 -0.011435032
-4.3717794 -4.5051231 -0.024610519
-3.9280341 -4.5798936 -0.036355615
-3.5833626 -4.5038958 -0.033635616
-3.1511345 -4.5621591 -0.043483675
-2.7530184 -4.5615091 -0.046966434
-2.2373147 -4.5502806 -0.033376336
-2.1524713 -4.5892954 -0.032874227
-1.8236667 -4.5232735 -0.034049451
-1.7474966 -4.5756059 -0.040589571
-1.5335323 -4.5072427 -0.055691957
-1.4576999 -4.5583758 -0.06382364
-1.3384731 -4.5697126 -0.05595541
-1.2510375 -4.5826054 -0.052201629
-0.6282739 -4.5422354 -0.05482018
-0.54636621 -4.5685525 -0.06008935
-0.46136522 -4.5710707 -0.057808936
-0.34855497 -4.5769892 -0.056434691
-0.23470631 -4.5591812 -0.047949851
-0.15051329 -4.5593319 -0.046766996
-0.066124447 -4.5385733 -0.039078534
0.045284048 -4.5272455 -0.035151064
0.15609486 -4.5096769 -0.030032814
0.2394107 -4.5106292 -0.031563997
0.70143455 -4.5992551 -0.020223022
1.0517879 -4.5937281 -0.039882302
1.1345606 -4.5667138 -0.037604332
1.2429833 -4.5249586 -0.033367753
1.6297231 -4.5804701 -0.029235244
1.741804 -4.5390997 -0.029254794
1.8285583 -4.5144668 -0.032028794
2.1481297 -4.56112 -0.024633467
2.2222548 -4.501338 -0.018058062
2.5584023 -4.5981355 -0.027794361
2.6319299 -4.531683 -0.021600962
3.0774803 -4.5590215 -0.031171083
3.1348891 -4.5231857 -0.031959772
3.6483517 -4.5705671 -0.05835104
3.7383745 -4.5103021 -0.061001182
4.1840782 -4.5708761 -0.077881098
4.2407756 -4.5200071 -0.078193784
4.7058997 -4.5458617 -0.089051008
-3.9526007 -4.4403257 -0.013737738
-3.6305225 -4.4498124 -0.030297637
-3.2448313 -4.4021769 -0.022353292
-3.1954916 -4.448689 -0.024741411
-2.8470902 -4.4655309 -0.037685573
-2.3301187 -4.4586449 -0.021351516
-2.0056725 -4.4166903 -0.025746703
-1.9252996 -4.4562283 -0.026905894
-1.6334759 -4.4400139 -0.045881152
-1.5821155 -4.4691529 -0.04913938
-1.3200403 -4.4061284 -0.059584022
-1.2027484 -4.4057202 -0.048505664
-1.1446321 -4.4052277 -0.043271542
-1.0634799 -4.4265337 -0.04363507
-0.96145749 -4.4845552 -0.055153191
-0.84774262 -4.4898386 -0.049289942
-0.73292589 -4.4832211 -0.040326774
0.29406542 -4.4957314 -0.027617216
0.34910125 -4.489316 -0.02677989
0.43070838 -4.4707136 -0.022924304
0.53699338 -4.4301414 -0.013143778
0.61955863 -4.4267502 -0.015599847
0.75730932 -4.4178076 -0.019816458
1.3478544 -4.4732656 -0.026617765
1.4472492 -4.4076757 -0.015925407
1.881992 -4.4871049 -0.030477166
1.9614124 -4.4451256 -0.028250694
2.2702062 -4.4595461 -0.013259411
2.3126497 -4.4080753 -0.0053248405
2.7500796 -4.4778085 -0.025764525
2.8203907 -4.4080405 -0.019416094
3.167625 -4.4525309 -0.021100283
3.2221661 -4.4133515 -0.021129489
3.7888374 -4.4585085 -0.059074044
3.8497405 -4.4189525 -0.061669111
4.2909651 -4.4623103 -0.076343179
4.7621112 -4.4883471 -0.089285135
-4.357389 -4.3812518 -0.00070023537
-3.6711268 -4.3883557 -0.024563909
-3.3410718 -4.3069572 -0.01737082
-3.2944226 -4.3563299 -0.020385742
-2.937901 -4.3673162 -0.028276742
-2.6375501 -4.3100305 -0.028042316
-2.5514636 -4.3470588 -0.024291754
-2.4313598 -4.3862119 -0.016577125
-2.134407 -4.3409419 -0.021541715
-2.0594363 -4.3909354 -0.025478125
-1.7493925 -4.3391523 -0.02877748
-1.6788001 -4.3957324 -0.037531137
-1.4491131 -4.3467627 -0.053623497
-1.3645426 -4.359077 -0.04874897
-1.2566454 -4.3900638 -0.048314095
-0.65066689 -4.3123069 -0.032835066
-0.54646641 -4.3428154 -0.038438797
-0.44057053 -4.3642435 -0.041729391
-0.33145124 -4.3523397 -0.034178853
-0.24925508 -4.3241076 -0.022320509
-0.16995271 -4.3382015 -0.025949776
-0.063402846 -4.3517857 -0.029717088
0.043565448 -4.3509898 -0.029351532
0.15021166 -4.3419285 -0.02700305
0.25593868 -4.320199 -0.021114826
0.66949505 -4.3898301 -0.0056627989
0.86516726 -4.3950462 -0.018848002
0.94996512 -4.3966947 -0.025180101
1.0332851 -4.3889008 -0.028851926
1.1407111 -4.3618975 -0.028748095
1.2166339 -4.3245964 -0.023255706
1.5539827 -4.3676815 -0.014846146
1.6578125 -4.3199735 -0.011989236
1.7438266 -4.3052754 -0.017804027
1.8397933 -4.3118467 -0.03185612
2.0556512 -4.3649969 -0.01761663
2.1270525 -4.3084984 -0.011336684
2.3640609 -4.3745356 -0.0036798716
2.4451149 -4.3316088 -0.0041968822
2.8613906 -4.3533311 -0.012565732
3.2730079 -4.3692122 -0.019665956
3.3455393 -4.3534932 -0.028384447
3.8695025 -4.3329525 -0.047966361
4.35324 -4.3631334 -0.06942749
4.8916173 -4.3884668 -0.096017957
4.9442329 -4.3271928 -0.095712543
-3.6835628 -4.2948518 -0.0076937675
-3.3566439 -4.2189355 -0.00078082085
-3.0249922 -4.2113237 -0.0054926872
-2.9817021 -4.260602 -0.0098944902
-2.7458129 -4.2487535 -0.02978766
-2.6985431 -4.2903676 -0.032713771
-2.3101871 -4.2287087 -0.015632272
-2.2365851 -4.279707 -0.018897355
-2.0420618 -4.2182579 -0.031368971
-1.9585997 -4.2434387 -0.027179658
-1.8439912 -4.2679553 -0.019218564
-1.5396469 -4.2661314 -0.037859321
-1.2369635 -4.2233996 -0.046787798
-1.1543691 -4.2285047 -0.040582061
-1.0675403 -4.2144465 -0.028066337
-0.96730733 -4.2560253 -0.03404665
-0.85946494 -4.2638736 -0.028797626
-0.7525329 -4.2731791 -0.025038183
0.35966122 -4.2846918 -0.011268854
0.46370047 -4.2643023 -0.0076414347
0.56772161 -4.2464046 -0.0057951808
0.64465463 -4.226953 -0.0028290749
0.74869514 -4.2118034 -0.0035326481
0.80018348 -4.2011542 -0.003128171
1.2668844 -4.2998018 -0.019891858
1.3386338 -4.2524767 -0.011660755
1.4111546 -4.2103152 -0.0056352615
1.94049 -4.2554688 -0.028285086
2.173336 -4.2692561 -0.006827116
2.518193 -4.2750692 -0.00039732456
2.9250817 -4.2764053 -0.0043424964
3.0052047 -4.224227 -0.0051993132
3.3755047 -4.2825098 -0.017914176
3.4252698 -4.2374759 -0.0167588
3.8938453 -4.2538123 -0.036674023
4.3995285 -4.2499094 -0.057578087
4.9993997 -4.2681212 -0.09646678
5.4429197 -4.2561884 -0.097219646
-3.0753334 -4.1722231 -0.0049128532
-2.8023219 -4.1109185 -0.0045101643
-2.7816539 -4.1903358 -0.02094841
-2.5170491 -4.1131191 -0.01675272
-2.4294982 -4.1396532 -0.0097826123
-2.3552206 -4.1879778 -0.011294484
-2.162498 -4.1380205 -0.025666177
-2.0918791 -4.1891031 -0.030002832
-1.642615 -4.1477356 -0.012711923
-1.4013119 -4.1186304 -0.029071569
-1.3310751 -4.1625075 -0.036010027
-0.64518493 -4.1049666 -0.012428045
-0.56911224 -4.1139412 -0.011641026
-0.46771613 -4.1248112 -0.010958314
-0.36661685 -4.1412716 -0.013223708
-0.23734049 -4.1174121 -0.0011037588
-0.16227692 -4.1463594 -0.010336041
-0.060795911 -4.1796846 -0.021471322
0.041717827 -4.1709833 -0.018219054
0.14325266 -4.1406221 -0.0079940557
0.21887706 -4.1237645 -0.0030409098
0.85205168 -4.1924758 -0.0036563873
1.0304012 -4.1473527 -0.0020167828
1.4612049 -4.1881118 -0.0040038824
1.5109185 -4.1653032 -0.0023680925
1.9822246 -4.1426311 -0.00062263012
2.0359786 -4.1240215 -0.0028322935
3.0484307 -4.1753888 -0.001033783
3.4663835 -4.1821485 -0.012089849
3.518131 -4.139955 -0.012353539
3.9477649 -4.156322 -0.027501285
4.4385829 -4.1834173 -0.053084612
5.0466375 -4.1501217 -0.086884081
5.4863887 -4.1294208 -0.087324142
5.9779844 -4.163342 -0.0991503
-2.6100423 -4.0386677 -0.012502909
-2.5688059 -4.0841007 -0.017579556
-2.2450848 -4.050395 -0.013245404
-2.0120451 -4.0292311 -0.027050972
-1.9332805 -4.0568142 -0.023774326
-0.84211493 -4.0490551 -0.0052719116
-0.76926315 -4.0742998 -0.0091537237
-0.69469291 -4.0914831 -0.010491729
3.5896304 -4.0195599 -0.00015687943
4.0286894 -4.0379233 -0.019935727
4.4628029 -4.0535755 -0.035185695
5.1058931 -4.0433764 -0.08177197
5.5019035 -4.0361423 -0.077341914
5.9652781 -4.0465417 -0.082327962
7.6349773 -4.0277972 -0.096186638
8.2271261 -4.0849462 -0.093416929
-2.6694937 -3.9683871 -0.0043700337
-2.4090354 -3.9366136 -0.0080668926
-2.3288238 -3.9679799 -0.0034119487
-2.0714164 -3.9638708 -0.016503155
4.1026592 -3.963136 -0.019979358
4.5181785 -3.9543099 -0.028859735
5.1090851 -3.9447196 -0.067623138
5.52982 -3.9530184 -0.071298242
5.9643722 -3.9397774 -0.069125175
6.5435529 -3.9839256 -0.092921615
7.6846104 -3.9340279 -0.096334219
8.2455025 -3.9685137 -0.087409616
9.0065556 -3.9327743 -0.092867255
-2.6005268 -3.8148916 -0.0086246729
-2.5301542 -3.8627758 -0.0088860393
-2.4461598 -3.8891077 -0.0012717247
4.5558996 -3.841423 -0.017442763
5.1759272 -3.8462567 -0.066153526
5.5561295 -3.8695431 -0.065142393
6.0110488 -3.8653522 -0.068788528
6.5097275 -3.8544836 -0.073036432
7.1434083 -3.8814323 -0.096643209
7.6950312 -3.8207495 -0.088624358
8.2725639 -3.8570511 -0.083373785
9.0635338 -3.8257298 -0.094508052
4.6529579 -3.7313452 -0.018728554
5.1939459 -3.7129171 -0.050585032
5.5985622 -3.7977803 -0.063829064
5.6231823 -3.7144039 -0.057837009
6.0578194 -3.739346 -0.062758744
6.5329742 -3.7605898 -0.067367077
7.1510396 -3.7724979 -0.087865829
7.7154737 -3.7134142 -0.083303094
4.7791743 -3.6899958 -0.037446141
4.8244877 -3.6312304 -0.037550211
5.2386832 -3.648459 -0.050437212
5.652904 -3.6350503 -0.053576827
6.124361 -3.6263034 -0.062389851
6.5730982 -3.6768887 -0.066033363
7.0933294 -3.63133 -0.065023303
8.1957722 -3.699321 -0.0598557
9.0023041 -3.6702044 -0.075681686
9.919446 -3.6237404 -0.091759443
4.8573408 -3.5632977 -0.033947587
4.9018898 -3.5041394 -0.03429985
5.2551031 -3.564795 -0.042213678
5.331636 -3.5218222 -0.051854134
5.7312536 -3.5377932 -0.056944668
6.1521921 -3.5413992 -0.058268547
6.6416006 -3.5561099 -0.06649971
7.1162562 -3.5333753 -0.060382605
7.6610503 -3.5719354 -0.063007951
8.2377119 -3.5970535 -0.059306145
9.0285883 -3.5521576 -0.072522044
13.125696 -3.551194 -0.089332938
4.9127822 -3.4214866 -0.024432063
5.3540387 -3.4428673 -0.04594183
5.7818909 -3.4235232 -0.053264856
6.1735816 -3.4534054 -0.052818656
6.695323 -3.4275763 -0.063968301
7.119668 -3.426656 -0.051779151
7.6722803 -3.463033 -0.05649817
8.2583418 -3.4858575 -0.054984331
9.8281412 -3.4540868 -0.070177317
10.72717 -3.4762948 -0.07205224
11.743695 -3.489207 -0.069745064
4.9413352 -3.3519509 -0.020394087
5.3191338 -3.3287413 -0.023935437
5.7864017 -3.3308387 -0.043362737
6.1707506 -3.3529303 -0.041625261
6.7059131 -3.3296311 -0.056765556
7.1326947 -3.3255916 -0.045593262
7.6546669 -3.3424628 -0.044474244
8.2102804 -3.3472996 -0.038072467
8.9626274 -3.3996153 -0.053639054
9.7898932 -3.3060441 -0.057457447
10.718764 -3.3285773 -0.064707041
11.717626 -3.3253062 -0.060679793
13.021825 -3.3519042 -0.071648598
4.9594169 -3.2759521 -0.013454914
5.3491845 -3.2567558 -0.020962715
5.8070354 -3.2483652 -0.038101554
6.1784334 -3.2594042 -0.03342092
7.6011477 -3.2084546 -0.025604248
8.2107925 -3.2304089 -0.030614972
8.8556156 -3.2351055 -0.028081298
4.955071 -3.1863146 -6.4849854e-05
6.2131538 -3.1807365 -0.032220244
6.651721 -3.1513472 -0.030475736
7.0556164 -3.1846895 -0.020294785
7.6330767 -3.1119757 -0.024221182
9.6166058 -3.1164002 -0.023681045
10.59764 -3.1486988 -0.041260004
11.654467 -3.1531487 -0.046989202
12.766953 -3.1195204 -0.03614378
14.453734 -3.1573746 -0.063261509
16.516539 -3.1848383 -0.089094043
6.2152934 -3.0860276 -0.023279428
6.69348 -3.0212324 -0.026970267
7.0476179 -3.0773909 -0.01030767
8.1693697 -3.0987246 -0.015679359
8.7957659 -3.09126 -0.011083961
6.2581711 -2.9647436 -0.020156801
6.7056708 -2.9280772 -0.021426797
7.0682759 -2.9835289 -0.0067628622
7.5916996 -2.9868364 -0.0085145235
8.1822939 -2.9891295 -0.011147141
8.8201962 -2.9785776 -0.0088779926
9.613821 -2.9854512 -0.017311811
10.443227 -2.9636488 -0.013391495
11.601837 -2.9863899 -0.035015464
12.587501 -2.9122236 -0.01013124
16.254177 -2.927542 -0.060271978
6.6664386 -2.8139129 -0.0045653582
7.6011267 -2.8831842 -0.0032330751
10.430493 -2.8219991 -0.006406188
18.673687 -2.8914397 -0.074108601
11.433998 -2.7938218 -0.0081520081
15.805958 -2.6466951 -0.014009595
18.069275 -2.5708838 -0.020380974
-1.8052412 -15.094892 0.063794136
-0.9879598 -14.117149 0.0046700239
-0.80330235 -13.935787 0.025037527
-3.0254583 -13.700218 0.017495036
-0.4543823 -13.764099 0.044830918
-0.28424251 -13.722583 0.049699068
-0.11549181 -13.714587 0.050803542
0.053043664 -13.710791 0.051245213
0.22173305 -13.721301 0.049956083
0.39114416 -13.745738 0.046975493
1.9216927 -13.730506 0.035032153
5.9544911 -13.721622 0.086897373
-2.1378896 -13.602248 0.045081019
-1.9732599 -13.646125 0.043091893
-1.8016092 -13.640573 0.046158433
0.55700111 -13.66533 0.054860711
1.2262906 -13.604428 0.056666732
1.3995488 -13.648419 0.050284147
1.5724881 -13.676416 0.04536736
1.7440414 -13.684292 0.042360067
2.0887694 -13.695908 0.036095262
2.2571926 -13.670825 0.035921574
2.4188976 -13.607571 0.039622307
2.7654314 -13.607161 0.032813311
2.941498 -13.614046 0.028283954
6.1428976 -13.692495 0.082229018
6.3181634 -13.632061 0.080553412
7.7892399 -13.603146 0.01911509
-2.4671049 -13.521272 0.047693729
-2.3067722 -13.58603 0.043893218
0.72062111 -13.576899 0.063384414
0.88579887 -13.542272 0.066004753
1.0543964 -13.559156 0.062952995
2.5860512 -13.577385 0.039561152
3.1099083 -13.582657 0.027656555
3.2898133 -13.598048 0.021716952
3.9925988 -13.550867 0.0072972775
4.3430867 -13.506672 0.00085711479
6.507103 -13.599129 0.075762749
6.6846218 -13.540185 0.073439598
6.8949714 -13.544338 0.064182281
7.1066818 -13.545842 0.05487299
8.0035419 -13.587402 0.010233164
8.2139721 -13.560748 0.0021998882
9.9224005 -13.59056 0.098239779
10.185403 -13.596725 0.08479929
10.399867 -13.533168 0.078218222
10.93517 -13.528137 0.050941229
11.202038 -13.51512 0.037699103
11.482995 -13.512596 0.022813797
-2.794842 -13.438152 0.049679756
-2.6273737 -13.460667 0.050844431
4.1541495 -13.48559 0.0089764595
10.609043 -13.459716 0.072344422
11.753358 -13.491177 0.0094765425
15.310423 -13.399682 0.031946778
18.708437 -13.373816 0.096636534
19.214426 -13.381806 0.071125984
19.748857 -13.396622 0.043737173
-3.1671553 -8.9465675 0.069518089
-3.0625327 -8.3243885 0.062385559
-7.6069922 -8.234642 0.063583493
-8.3270922 -8.1693983 0.0053098202
-3.1179414 -8.1639471 0.083582759
-15.902393 -8.0498562 0.015230417
