# .PCD v0.7 - Point Cloud Data file format
VERSION 0.7
FIELDS x y z
SIZE 4 4 4
TYPE F F F
COUNT 1 1 1
WIDTH 1584
HEIGHT 1
VIEWPOINT 0 0 0 1 0 0 0
POINTS 1584
DATA ascii
12.677979 8.7559366 1.0479416
12.934254 8.7883816 1.0901847
-17.376036 8.8322315 1.0933795
-12.856443 8.8327465 1.0758327
-12.673916 8.8158274 1.0546441
-12.263956 8.8464956 1.0090113
-11.839019 8.8234768 1.0538435
-11.689098 8.8532782 1.023381
-11.475296 8.8238668 1.0140554
-11.261661 8.8153973 1.0137585
-12.764697 8.9456749 1.0408657
5.3511934 8.9813423 1.0025868
5.5524368 8.939908 1.0276719
5.7625456 8.9647684 1.0391095
5.9180021 8.9720669 1.0342141
6.1428185 8.9391031 1.046616
6.3642721 8.9399881 1.0603834
6.731102 8.9630337 1.0536333
6.9472017 8.95473 1.0270472
10.344675 8.9658995 1.0087506
10.76614 8.9174738 1.0311025
10.948843 8.9456844 1.0459363
11.131447 8.9444113 1.0472887
11.288787 8.9377089 1.0337622
11.52468 8.9390211 1.0524769
11.728329 8.9035568 1.0475502
11.940294 8.9251404 1.0725633
12.156039 8.9348536 1.0520208
12.330203 8.9167442 1.0545768
12.529615 8.92729 1.0584278
12.72845 8.9077892 1.0530568
-17.40502 9.0718889 1.0947537
-12.677382 9.0271778 1.0651833
-12.452091 9.0300407 1.0476704
-12.249894 9.0366306 1.0018064
-12.065183 9.0582752 1.0294898
-11.878634 9.0306644 1.0556315
-11.657697 9.022069 1.0484515
-11.461701 9.0081902 1.0329684
-11.254602 9.0355606 1.0192136
10.599607 9.0677795 1.0054665
5.1350927 9.1846046 1.0028521
5.3427143 9.1591787 1.0291462
5.741189 9.1607885 1.0350362
5.9505196 9.1545067 1.0421575
6.1409998 9.1702509 1.0483913
6.3576565 9.1467848 1.061814
6.5482044 9.1430101 1.0643823
6.7537918 9.1515131 1.0356786
6.9382401 9.1526709 1.0176007
10.744515 9.136714 1.0503597
10.955051 9.1428976 1.0555342
11.110024 9.1241779 1.0490503
11.321832 9.1229935 1.0509768
11.546822 9.1253176 1.0337756
11.733515 9.1795006 1.030596
11.876232 9.1302462 1.0725284
11.953964 9.1733408 1.0038249
12.159555 9.1563158 1.0842217
12.341233 9.1367846 1.0502243
12.496665 9.1225405 1.0899686
12.522862 9.1528063 1.0054681
12.668094 9.164835 1.0608587
-12.551864 9.2371111 1.0444282
-12.250289 9.24051 1.0299253
-12.047832 9.2345572 1.0391402
-11.853049 9.2421865 1.0493791
-11.678745 9.2370291 1.0607965
-11.451835 9.2241945 1.0385928
-11.264765 9.2195072 1.0659393
-11.073173 9.2258482 1.0071628
10.546401 9.2871485 1.0562813
-1.0159273 9.3600979 1.0713227
5.3353834 9.3775387 1.0223223
5.5269289 9.3645458 1.0397365
5.7391958 9.3645935 1.0140545
5.958149 9.3355541 1.0326877
6.1490126 9.3691502 1.051219
6.3587418 9.359067 1.0554361
6.5398569 9.3457155 1.0567099
6.7488794 9.3646555 1.0318546
6.9344025 9.3755903 1.0084609
10.865531 9.3210354 1.0695034
11.12106 9.3593321 1.0706517
11.376575 9.3463402 1.0419073
11.558334 9.373024 1.0338647
11.764452 9.3349476 1.0515532
11.925982 9.3445883 1.0543892
12.156414 9.3466825 1.0554904
12.39681 9.3477306 1.025172
12.528158 9.3353462 1.0016758
-13.667681 9.431963 1.0075445
-12.63448 9.4483719 1.0763725
-12.456358 9.4319773 1.0331739
-12.249187 9.4428596 1.082255
-12.061775 9.4108849 1.0465119
-11.836778 9.4159651 1.0904876
-11.663568 9.42027 1.062277
-11.450761 9.4330387 1.0502769
-11.260591 9.4334888 1.0355742
-11.067487 9.4245663 1.0169622
-7.0326161 9.4828663 1.0087112
-1.2239084 9.4788885 1.0911494
10.982462 9.497756 1.0583369
12.720651 9.4468346 1.0767229
-6.6173868 9.5742359 1.0104144
-6.4096723 9.5625343 1.0072683
4.7304029 9.5472536 1.000347
4.9515343 9.5665665 1.008799
5.1537447 9.5612421 1.0002006
5.3332624 9.5664558 1.0243931
5.5270605 9.5433731 1.0342172
5.7197113 9.5615425 1.0290241
5.9303999 9.5762243 1.0366936
6.1381292 9.5628653 1.0559149
6.3524389 9.5775127 1.0552306
6.5485811 9.5536518 1.0537375
6.7415247 9.5577555 1.0363567
6.9390802 9.5820341 1.0112162
11.361228 9.5635662 1.0487325
11.551556 9.5735531 1.0323305
11.622012 9.5802784 1.0898494
11.722804 9.5436354 1.0196606
11.959635 9.537015 1.0142117
12.003306 9.5168753 1.0804734
12.143805 9.5352983 1.026396
12.357224 9.5447388 1.0295562
-12.884591 9.643199 1.0490364
-12.650768 9.6023073 1.0974518
-12.465005 9.6261663 1.0623364
-12.235547 9.625248 1.0506115
-12.061827 9.6252718 1.0454764
-11.668752 9.6279449 1.072464
-11.266184 9.6165886 1.0612361
-11.053453 9.6181364 1.0351188
-10.848793 9.6372852 1.0243253
-10.668764 9.6481762 1.0051323
-10.463381 9.6390409 1.0000889
-6.0585237 9.6607475 1.03598
11.127968 9.6192398 1.0801728
-13.296329 9.7120895 1.0236257
-13.107433 9.7849236 1.0483637
-7.6853933 9.7746439 1.0126729
-7.1707816 9.7114553 1.0312841
5.1824884 9.7644796 1.0152489
5.5619345 9.7783051 1.0324522
5.7101631 9.7801151 1.010504
5.9293756 9.7676258 1.0507772
6.1351051 9.7386503 1.0155823
6.3371744 9.7557335 1.0704873
6.5542574 9.7489405 1.0539092
6.7408781 9.7616062 1.0175253
6.9261627 9.7457819 1.0259567
7.1216211 9.7544909 1.0241315
11.023244 9.7608643 1.0715883
11.148311 9.7105999 1.008096
11.344063 9.726059 1.0499518
11.550659 9.7591114 1.057972
11.732484 9.7634096 1.0297867
11.936872 9.7272148 1.0243413
12.168387 9.7369576 1.0328015
12.34688 9.7296896 1.0204043
-12.813457 9.8383627 1.0316296
-12.057773 9.8189907 1.0593245
-11.860087 9.8372459 1.0763679
-11.655366 9.8465052 1.0833473
-11.444191 9.8103495 1.075573
-11.263152 9.8328047 1.0714523
-11.060661 9.8151722 1.053208
-10.87938 9.8294363 1.0383645
-10.661817 9.8412886 1.018765
-10.448 9.8236847 1.0037597
-10.248521 9.8132267 1.0046353
-6.2545457 9.8313532 1.0626346
-5.9703641 9.8714094 1.0383471
-5.8446631 9.8434677 1.0305279
7.1059141 9.8619461 1.0411544
-8.2552929 9.9785318 1.0179149
-6.254601 9.9171238 1.0695359
-5.822814 9.954113 1.0458829
4.5344858 9.9661226 1.0043352
4.9644785 9.9728165 1.0177712
5.1479588 9.9671392 1.0269721
5.3327236 9.9543791 1.0035884
5.5497522 9.9696302 1.0400916
5.7420168 9.9659624 1.0632782
5.9241076 9.9147224 1.0263041
6.1385422 9.9693356 1.0295919
6.336854 9.9610014 1.0210978
6.4731646 9.9019203 1.0218573
6.7475367 9.9506979 1.0495126
6.9537678 9.9571152 1.0271595
10.939865 9.9487534 1.0027194
11.129597 9.9339352 1.0341005
11.333647 9.9201298 1.0348425
11.529564 9.9263668 1.0471517
11.732279 9.9493685 1.0459313
11.946265 9.9220886 1.0292438
12.136281 9.9410715 1.0252565
-12.051379 10.030828 1.0462998
-11.66856 10.055556 1.0766977
-11.47066 10.015915 1.0776707
-11.273999 10.01459 1.0850706
-11.06231 10.04201 1.0647366
-10.870091 10.021939 1.0525713
-10.659406 10.01995 1.032656
-10.46032 10.047085 1.0258306
-10.279407 10.040404 1.0126812
-10.049397 10.045824 1.0003598
-8.9101582 10.016444 1.0042464
-8.6600313 10.016742 1.000486
-8.4700308 10.014277 1.0039428
-8.0625706 10.021056 1.0057569
-7.8836098 10.015459 1.0128223
-7.6828909 10.076589 1.0173408
-7.1567621 10.099488 1.0462788
-6.8411126 10.087591 1.0310912
-6.666121 10.090869 1.0491579
-6.4653263 10.004735 1.0136402
6.1530676 10.099084 1.0717117
7.335186 10.0615 1.0445795
10.981356 10.042458 1.0874839
-9.2354126 10.184864 1.0180323
-9.0492954 10.176669 1.0322405
-8.8813391 10.149324 1.0368959
-8.01373 10.18637 1.029091
-7.8773241 10.138386 1.0601794
-6.3711057 10.170367 1.0575238
-6.1165214 10.181073 1.08665
-6.0117817 10.10071 1.0547489
-1.6549082 10.181049 1.0066185
4.7321749 10.125965 1.0221335
4.9506483 10.133777 1.0342107
5.1329584 10.135792 1.0239549
5.3673 10.143038 1.0480433
5.568943 10.146278 1.0699692
5.7498922 10.150624 1.0809739
5.9277544 10.127271 1.0878248
6.3140726 10.156651 1.05627
6.5517626 10.175977 1.0393317
6.706933 10.157653 1.0483961
6.9052925 10.117052 1.0468297
10.570965 10.166684 1.0115645
10.723654 10.136823 1.0401154
10.946038 10.124857 1.037807
11.149633 10.151819 1.052055
11.34092 10.137389 1.0495209
11.527132 10.150945 1.0660295
11.729731 10.131832 1.0600188
11.935373 10.150217 1.0652704
12.137608 10.147618 1.0134853
-16.379511 10.221416 1.0889655
-13.666609 10.239193 1.0734863
-12.055141 10.219431 1.0727048
-11.837063 10.22657 1.0708094
-11.652617 10.23033 1.0712613
-11.458766 10.237499 1.0822291
-11.257194 10.214311 1.093876
-11.062111 10.23371 1.0754926
-10.853716 10.223431 1.0618942
-10.640738 10.231428 1.0447373
-10.470461 10.236372 1.0331506
-10.272899 10.238742 1.0240775
-10.136835 10.254261 1.0026294
-9.600111 10.252386 1.0109754
-9.4361534 10.222537 1.0013586
-8.6738014 10.21893 1.0183351
-8.4628239 10.215154 1.0066103
-8.2489109 10.21403 1.0248109
-8.0548248 10.236745 1.0029812
-7.6952515 10.201003 1.0438679
-7.4302568 10.236169 1.025773
-7.051167 10.245288 1.0214858
-6.2556748 10.284168 1.0734875
3.9823914 10.2678 1.0147817
10.614079 10.274053 1.0998542
-9.5260363 10.384787 1.0305746
-8.2455292 10.387376 1.0246037
-7.6384559 10.384924 1.0344152
-7.2648711 10.389889 1.0263203
-6.5753517 10.316467 1.073927
-6.0649972 10.368469 1.0757549
-1.6512833 10.39638 1.0272646
4.9842567 10.376451 1.0849572
5.1694555 10.373103 1.064275
5.5413322 10.331588 1.0864408
5.7376337 10.36175 1.0927017
5.9472613 10.357468 1.0489246
6.1439552 10.353901 1.0407861
6.3332787 10.354452 1.004177
6.4360247 10.316223 1.07017
6.6814718 10.316308 1.062964
10.140738 10.350175 1.0026771
10.342702 10.377644 1.0001481
10.542882 10.369263 1.0433941
10.734983 10.353692 1.0163447
10.940057 10.335307 1.0421733
11.102622 10.337635 1.0610459
11.336857 10.353234 1.0798916
11.540118 10.363306 1.0608648
11.74565 10.379179 1.0792978
11.929484 10.370478 1.0648869
12.143747 10.342095 1.022724
-12.049072 10.425608 1.0828596
-11.838709 10.43639 1.0825847
-11.665215 10.435874 1.0862534
-11.46515 10.406484 1.0929879
-11.260005 10.435506 1.0839006
-11.070548 10.42144 1.0881352
-10.861113 10.41936 1.0806361
-10.656246 10.442382 1.0637337
-10.46081 10.453173 1.0512623
-10.239737 10.434442 1.0298542
-10.045217 10.435013 1.0123228
-9.8371477 10.409975 1.0047189
-9.661356 10.416687 1.0060303
-9.2122908 10.435068 1.0220922
-9.0631523 10.426124 1.0149328
-8.8640003 10.421096 1.0182008
-8.6477032 10.422608 1.0198953
-8.4637928 10.419861 1.0241119
-8.0611115 10.405749 1.0352669
-7.8652735 10.405212 1.0266942
-7.4662499 10.459903 1.0229971
-6.6503301 10.425501 1.0014939
-6.3028731 10.430768 1.0716565
-1.8335352 10.403289 1.0068704
-14.62109 10.504275 1.0291591
-12.059217 10.595991 1.0849679
-10.044322 10.538172 1.0136833
-8.882165 10.596957 1.0541507
-7.6431122 10.599619 1.0366577
3.9417696 10.537358 1.0208913
5.3183641 10.56946 1.0030826
5.5595579 10.570935 1.0022928
5.7401857 10.569719 1.0107007
5.939991 10.587999 1.0092052
6.148643 10.565892 1.0395281
6.3538551 10.565934 1.0145633
6.4413176 10.531016 1.0768416
6.558507 10.560491 1.0141264
7.1589422 10.50049 1.0626891
10.152904 10.55572 1.0096922
10.378396 10.557446 1.0304145
10.564205 10.561137 1.0461676
10.758861 10.554116 1.0585649
10.96168 10.512172 1.0629635
11.159262 10.510612 1.0774028
11.330794 10.524674 1.0868315
11.564463 10.545958 1.0923884
11.775105 10.542899 1.0981988
11.923095 10.5343 1.0799561
12.145316 10.529747 1.0291071
12.336327 10.555151 1.007162
-11.850181 10.637911 1.0868726
-11.64269 10.653583 1.0914592
-11.043366 10.61727 1.0948513
-10.850232 10.612816 1.0894607
-10.646685 10.619446 1.0775326
-10.442887 10.608475 1.0341988
-10.258145 10.632811 1.0525303
-10.093494 10.626369 1.0403326
-9.8564816 10.626561 1.0275189
-9.6405878 10.629816 1.0291411
-9.4629803 10.643639 1.0304426
-9.2645302 10.627131 1.0186447
-9.1014576 10.621582 1.0456657
-8.8627996 10.61958 1.0158061
-8.6579905 10.630081 1.0383413
-8.4482327 10.641925 1.0454148
-8.2435923 10.630492 1.0617452
-7.8484325 10.614914 1.0134556
-7.4785213 10.61325 1.0371552
-7.2572231 10.6196 1.0341578
-6.6467214 10.629265 1.0157689
-6.3110991 10.679219 1.0948461
-1.8714857 10.60448 1.0001608
-1.6521139 10.618494 1.0134858
5.918788 10.644162 1.0865368
6.5922966 10.681926 1.0739541
-9.998023 10.796659 1.0243216
-8.0730171 10.713643 1.0653727
-7.4805393 10.756666 1.0801047
4.0781202 10.791423 1.0737985
4.2536469 10.726769 1.0448469
5.5425968 10.741343 1.0479743
5.7370706 10.729637 1.0515306
5.9565639 10.739832 1.0280613
6.1468258 10.757946 1.049516
6.3509455 10.732784 1.0487276
6.5350256 10.776671 1.0192128
6.7577372 10.742347 1.0094353
7.6788902 10.783609 1.0974673
7.9346523 10.754472 1.0002271
8.1269407 10.76381 1.0102267
9.9664288 10.736901 1.0097755
10.146991 10.745995 1.023571
10.351779 10.750648 1.0389178
10.551051 10.723413 1.0518802
10.73474 10.755355 1.0661438
10.956612 10.731278 1.0799839
11.157311 10.733408 1.0887011
11.552368 10.738221 1.0912223
11.753939 10.7405 1.0897185
11.921067 10.718631 1.0620904
12.117115 10.731336 1.0445863
12.359159 10.74457 1.0211183
12.521064 10.736086 1.0196521
12.74769 10.757751 1.0008991
12.952555 10.745337 1.0036123
13.149212 10.738482 1.0022783
13.309798 10.733247 1.0011537
-12.061822 10.819947 1.0872093
-11.885004 10.817223 1.084615
-11.646712 10.831234 1.0910835
-10.653927 10.816294 1.0914943
-10.460995 10.810522 1.0752007
-10.253189 10.836124 1.0632272
-10.070729 10.805396 1.0595652
-9.8525467 10.836583 1.0544895
-9.6603451 10.807004 1.0486993
-9.4493618 10.849007 1.0557766
-9.2535162 10.81704 1.0524559
-9.0667315 10.841322 1.0592593
-8.8586349 10.834625 1.0616863
-8.671833 10.819654 1.0562758
-8.4357758 10.827332 1.05685
-8.22157 10.811544 1.0693601
-8.0599861 10.832535 1.0361081
-7.8475018 10.838845 1.061097
-7.6670771 10.824233 1.0160342
-7.4397888 10.836771 1.0101994
-7.0407548 10.822158 1.0021095
-6.854847 10.809132 1.0179162
-6.6544461 10.804312 1.0661541
-6.4720488 10.828396 1.0725091
-6.264051 10.818548 1.0127435
-12.295818 10.956634 1.0095456
-7.8189697 10.971089 1.0853307
-1.0558825 10.995948 1.0254371
4.5289974 10.970919 1.0036887
4.8442326 10.977179 1.0072471
5.1529932 10.958136 1.0413895
5.3507595 10.962078 1.0271211
5.549161 10.958982 1.0256865
5.7485161 10.966607 1.0345343
5.9534187 10.985061 1.0005809
6.1447439 10.931383 1.0618957
6.344821 10.958081 1.023598
6.5283051 10.941204 1.0167339
6.7327728 10.975904 1.0179886
6.9498205 10.957731 1.0106356
7.7830029 10.978123 1.0281284
7.947072 10.963549 1.000789
8.1402969 10.959007 1.0102639
9.3333082 10.945123 1.0215695
9.5217428 10.953252 1.0136007
9.7324457 10.965179 1.014345
9.9108782 10.94255 1.0493668
10.170244 10.947183 1.0450935
10.311382 10.950565 1.0539606
10.548907 10.965479 1.0846032
10.691734 10.931297 1.0722619
10.944921 10.906332 1.0751356
11.544981 10.934429 1.0958719
11.747655 10.951375 1.0926255
11.947078 10.93592 1.0771668
12.1671 10.918701 1.0486288
12.346778 10.942492 1.0277412
12.543906 10.96138 1.0148399
12.765559 10.9538 1.0229921
12.962884 10.951081 1.0144719
13.138745 10.935252 1.0036424
-14.706314 11.039718 1.0864246
-11.794897 11.06987 1.0698719
-11.394736 11.083616 1.0028279
-10.474022 11.011024 1.0956074
-10.27182 11.032745 1.0814058
-10.047753 11.018412 1.0761055
-9.8574781 11.014153 1.0603938
-9.6259155 11.022827 1.0536721
-9.4205904 11.040813 1.0751581
-9.2386074 11.02881 1.0697336
-9.0726528 11.032295 1.063273
-8.8515291 11.025357 1.0729554
-8.6709995 11.034332 1.0751252
-8.442708 11.017023 1.0715194
-8.2566919 11.021181 1.0470136
-8.048336 11.040154 1.0679057
-7.8491478 11.034755 1.0383748
-7.6678276 11.024528 1.0367401
-7.4656277 11.037473 1.0350513
-7.2776556 11.016405 1.0261678
-7.0560966 11.004968 1.0085658
-6.8380933 11.018682 1.0259036
-6.6442394 11.017699 1.0359209
-6.4647193 11.025978 1.0370147
-6.2505565 11.018572 1.010217
-0.86570168 11.01291 1.0071012
3.8887434 11.054515 1.0663483
6.3024073 11.054982 1.0924175
13.555602 11.055924 1.0272241
-10.040086 11.184579 1.0699159
-8.2210569 11.197127 1.0816383
-7.047667 11.199014 1.01275
-1.8580723 11.189929 1.0057889
-1.6389542 11.165264 1.0106627
-0.87374401 11.150386 1.0113432
-0.69026375 11.153015 1.0189832
4.5764251 11.189211 1.0433496
4.7163353 11.150414 1.0287601
4.9430237 11.13936 1.0658696
5.11936 11.120652 1.0360878
5.3113594 11.170426 1.0611594
5.5716181 11.176683 1.0540118
5.7651768 11.163899 1.0412619
5.9463816 11.196532 1.0404584
6.1358929 11.133133 1.0258504
6.3495045 11.142087 1.0506824
6.5178852 11.172834 1.0569241
6.7446461 11.16108 1.0303841
6.9596786 11.184381 1.0091498
7.1156168 11.164339 1.0107114
7.7747831 11.15311 1.0079471
7.9650431 11.150381 1.0196486
8.154707 11.16879 1.013432
8.3540401 11.158531 1.0010538
8.540493 11.128065 1.0015835
9.1533585 11.159293 1.006063
9.3940868 11.188577 1.0454067
9.5508881 11.153646 1.0498328
9.7521029 11.153938 1.0747358
9.9463634 11.106104 1.0634396
10.141211 11.140421 1.0581409
10.384304 11.175041 1.0861173
10.52562 11.149826 1.0515418
11.933345 11.141457 1.0765945
12.131727 11.11974 1.0565338
12.349199 11.139996 1.0521097
12.558643 11.150418 1.0436134
12.754328 11.14379 1.028085
12.948301 11.150179 1.0280962
13.316898 11.123491 1.0230687
-12.267076 11.212528 1.0353044
-10.249588 11.236978 1.0719329
-9.8568792 11.232582 1.0810809
-9.6527767 11.21112 1.0712007
-9.4486656 11.217957 1.08252
-9.047924 11.250332 1.0674511
-8.8534918 11.218786 1.0883175
-8.6660252 11.218857 1.0856688
-8.4588108 11.206436 1.0815929
-8.0296297 11.201427 1.0845428
-7.8458591 11.247474 1.0549804
-7.6481953 11.219351 1.0471222
-7.4454813 11.203552 1.0471959
-7.2634993 11.214427 1.0340064
-6.8455591 11.216945 1.0284351
-6.6552057 11.225941 1.037578
-6.4773178 11.21053 1.0353582
-6.2764659 11.214349 1.0209347
-5.6439557 11.203894 1.0017937
-5.4355226 11.209834 1.0015192
-2.0658426 11.298586 1.0123287
-1.4574718 11.20922 1.0266563
-1.247139 11.207665 1.0257057
-1.0445623 11.200824 1.0405999
-9.6584959 11.388283 1.0895303
-9.2633553 11.30904 1.0983163
-7.2449846 11.396753 1.0494632
-5.6487379 11.394513 1.0143981
-2.2568865 11.352871 1.0323365
-1.6651812 11.379567 1.0214566
-1.2518511 11.382948 1.0412526
-1.0530949 11.379131 1.0419211
-0.84003639 11.368079 1.0446978
4.5742846 11.382266 1.0149128
4.7603664 11.373451 1.0235736
4.929738 11.346462 1.0331478
5.0333805 11.378525 1.0984489
5.1779289 11.373622 1.0422211
5.3766394 11.379853 1.0609968
5.5589609 11.392307 1.0667953
5.751256 11.374032 1.0613586
5.9366913 11.36154 1.0359832
6.1579704 11.350986 1.0532222
6.3507967 11.374868 1.0513489
6.5592432 11.346302 1.0421046
6.7449722 11.373178 1.0570196
6.9405661 11.378429 1.0020413
7.3911028 11.324332 1.0119506
7.5461254 11.399657 1.0191288
7.7521763 11.366477 1.0007935
7.975975 11.363748 1.0222251
8.1424055 11.366238 1.0015742
8.9476862 11.352171 1.0018147
9.1270208 11.346299 1.0455358
9.3813677 11.363982 1.0552372
9.9178925 11.362374 1.0821996
10.160041 11.378745 1.0454817
10.373181 11.391932 1.0598109
10.560483 11.34789 1.0700271
11.937132 11.330947 1.0835321
12.123996 11.332379 1.0614293
12.379764 11.354307 1.0543474
12.539704 11.345385 1.0419216
12.761548 11.348855 1.0415945
12.943754 11.351503 1.0099863
13.141008 11.345873 1.0093164
-10.268603 11.412838 1.0900016
-10.050389 11.428173 1.0951639
-9.87288 11.408426 1.0923185
-9.4419088 11.405457 1.0733306
-9.2770748 11.439671 1.0674798
-9.0717764 11.41553 1.0972196
-8.8615246 11.415514 1.0964007
-8.6414204 11.420551 1.0700035
-8.4432602 11.424353 1.0676572
-8.2314262 11.421256 1.0937631
-8.0496483 11.434726 1.0695338
-7.852006 11.429487 1.0956395
-7.650238 11.419273 1.0696782
-7.0448375 11.414376 1.0423013
-6.828661 11.406462 1.036431
-6.6502037 11.413362 1.0485039
-6.4352407 11.429779 1.0543115
-6.2583752 11.413657 1.0392905
-6.0348587 11.406813 1.0310282
-5.860559 11.424663 1.0222913
-5.2614245 11.449356 1.0060307
-5.0836353 11.403481 1.0030129
-3.0686436 11.422365 1.0086614
-2.8729906 11.404497 1.0144172
-2.6412821 11.434812 1.0122203
-2.4680653 11.454298 1.0173395
-1.8729925 11.402037 1.001826
-1.5021639 11.491889 1.0168447
-0.60688114 11.401139 1.0473068
-0.31258774 11.478334 1.0414758
-10.895644 11.530682 1.066247
-10.649825 11.520727 1.0049036
-7.0427499 11.592468 1.0491419
-6.454659 11.595827 1.0499589
-5.8148036 11.599833 1.004486
-4.6232367 11.595284 1.0077431
-3.6366138 11.598766 1.0156041
-3.473475 11.599815 1.013472
-2.4953861 11.57045 1.0528015
-1.6265726 11.594783 1.0309011
-1.0913191 11.535088 1.0421633
-0.7740469 11.541055 1.0857028
-0.69266224 11.531799 1.0271701
4.5676241 11.578071 1.0083824
4.7615671 11.592531 1.0289111
4.9469995 11.567454 1.0487398
5.1656342 11.56925 1.0737462
5.3644581 11.56982 1.067192
5.5684986 11.582664 1.0778773
5.7400684 11.594467 1.0722471
5.9315128 11.593683 1.0681746
6.1451197 11.584852 1.0487399
6.3397369 11.575794 1.0590507
6.5692339 11.569995 1.0897827
6.7710629 11.562644 1.0554178
6.9523544 11.574794 1.0438018
7.115984 11.545397 1.0291076
7.5335016 11.538814 1.0333072
7.7637892 11.543148 1.0481527
7.9444227 11.545901 1.0355749
8.1548433 11.597898 1.0290784
8.3211994 11.59312 1.0245414
8.5381336 11.525026 1.0261981
8.751689 11.578137 1.0346496
8.991827 11.56726 1.0417088
9.1620741 11.540555 1.0340883
9.3643532 11.5261 1.0655224
9.5430708 11.559585 1.0941039
10.154997 11.555452 1.0797825
11.939343 11.536065 1.0952393
12.136679 11.537931 1.069386
12.351852 11.518921 1.0612115
12.557232 11.557316 1.0321418
12.755642 11.526758 1.0159649
12.941735 11.533792 1.0221165
13.137807 11.549264 1.0123858
-10.796608 11.600772 1.0412723
-8.2445641 11.624577 1.0817747
-8.0479746 11.603459 1.0787089
-7.635973 11.615238 1.0784131
-7.2563372 11.609941 1.0635676
-6.8486814 11.622751 1.043283
-6.6542287 11.621919 1.044878
-6.2456212 11.608855 1.0516677
-5.6517577 11.618965 1.0337186
-5.4572053 11.607242 1.0323613
-5.2526793 11.617796 1.02052
-4.4585414 11.614865 1.0077732
-3.2681966 11.606959 1.0236708
-3.0774145 11.611374 1.0291083
-2.8641109 11.672532 1.0150782
-2.6500168 11.652137 1.0335207
-2.1045294 11.624707 1.0295161
-1.8546724 11.641419 1.0404751
-1.4429359 11.600349 1.0494881
-1.2554951 11.646447 1.0388309
-0.25244045 11.651781 1.0716836
12.133636 11.670555 1.0185091
-6.0635791 11.793637 1.0674692
-5.6341949 11.797102 1.005155
-4.8476677 11.798183 1.0058541
-4.6552739 11.775955 1.0041229
-3.6306 11.782731 1.0447785
-3.4410443 11.797564 1.0325849
-3.2435699 11.796479 1.0405415
-2.275425 11.781051 1.0220523
-1.9610386 11.788751 1.0913157
-1.8432703 11.798502 1.0022631
-1.6368093 11.789224 1.0467807
-1.4126177 11.769889 1.049504
-1.250721 11.752218 1.0579481
0.15201759 11.771209 1.0126436
0.49981499 11.75674 1.0863837
4.5541859 11.76377 1.005368
4.7358437 11.783715 1.0281503
4.9398308 11.775467 1.0472515
5.1371326 11.751601 1.0684686
5.3708096 11.732249 1.0832754
5.5597992 11.748916 1.0884602
5.740593 11.784174 1.0757884
6.1202536 11.74776 1.0660824
6.3593578 11.765158 1.0859442
6.5382023 11.765725 1.087688
6.772913 11.762066 1.0718191
6.9327927 11.770494 1.0580523
7.155159 11.773882 1.0449829
7.3430672 11.77513 1.0631652
7.5790186 11.745687 1.0560921
7.7613564 11.762842 1.0619593
7.917037 11.752644 1.0476093
8.1307716 11.783488 1.0440867
8.3355846 11.762495 1.028548
8.5764084 11.764982 1.0408833
8.723917 11.728373 1.0133369
8.9305449 11.754407 1.0531853
9.1317358 11.751321 1.0666081
9.347105 11.76507 1.0823902
9.5385704 11.740071 1.0857109
10.329976 11.754031 1.0993531
11.949949 11.74508 1.0889171
12.138222 11.738928 1.0851578
12.364646 11.71546 1.0625243
12.565376 11.72838 1.056277
12.75544 11.743184 1.0347571
12.927553 11.743931 1.0092759
13.107176 11.73558 1.0267929
-12.130576 11.889153 1.0749027
-11.759385 11.893713 1.0526166
-8.2568626 11.818192 1.0900995
-7.8428459 11.811685 1.0863042
-7.6567254 11.818784 1.0857128
-7.4434519 11.813581 1.0877312
-7.2450743 11.82776 1.0688901
-7.0829492 11.814003 1.0768064
-6.8572688 11.831675 1.0626544
-6.6334405 11.816175 1.0522844
-6.4551973 11.830063 1.0543693
-6.2388225 11.817259 1.064149
-5.8447561 11.805827 1.073681
-4.4446683 11.801847 1.0127864
-4.2685537 11.840568 1.0320238
-4.0187483 11.808242 1.0216322
-3.8515787 11.81804 1.024312
-3.0641804 11.821687 1.0425971
-2.8394232 11.807419 1.0192088
-2.6544533 11.860319 1.0512617
-2.4389648 11.811973 1.0548569
-1.8091764 11.866669 1.0942012
-1.6381187 11.801277 1.0017321
-1.4548254 11.8269 1.0003231
-1.1171465 11.844607 1.0514978
-0.82976151 11.860291 1.0608051
-0.57313347 11.864892 1.0998
0.067929268 11.859261 1.0698117
5.9588623 11.803039 1.0612226
11.982619 11.809639 1.0198078
12.345224 11.82894 1.0162201
12.938389 11.822989 1.0608113
-10.548297 11.91396 1.0325956
-6.0384755 11.99786 1.0825343
-5.8564234 11.999421 1.0681893
-4.6449342 11.969496 1.0158374
-4.0877967 11.990973 1.0059186
-3.5342455 11.999132 1.0341134
-3.4043632 11.980562 1.0056149
-3.0743761 11.988272 1.0619912
-2.2426434 11.976629 1.0663819
-2.0452642 11.992847 1.0166211
-1.9408016 11.944791 1.056069
-1.4292669 11.957239 1.0729032
-0.63857555 11.996446 1.0284927
-0.025037766 11.984058 1.0246933
0.23586082 11.900338 1.0918255
0.32212448 11.996375 1.0101748
4.1718779 11.952784 1.0002276
4.5547972 11.936245 1.0136386
4.7491322 11.993784 1.0326984
4.942194 11.961756 1.0685048
5.1438618 11.95221 1.0769939
5.3459129 11.949998 1.0977216
6.1526127 11.986468 1.0797966
6.3190899 11.941645 1.0787023
6.5590458 11.923907 1.0881232
6.7503099 11.970949 1.0684721
6.962141 11.995937 1.0646498
7.135849 11.933503 1.0815639
7.369607 11.974389 1.058532
7.5468645 11.915634 1.0518401
7.7339649 11.958057 1.0743815
7.9492216 11.963941 1.044498
8.1651487 11.973024 1.0570817
8.3838825 11.949162 1.0602523
8.553524 11.932525 1.0584583
8.7551117 11.966095 1.075424
8.9800997 11.955473 1.0784373
9.5173216 11.9473 1.0848749
9.9217091 11.918665 1.0892531
10.15763 11.940337 1.0843534
11.60278 11.90982 1.0308945
12.185081 11.951117 1.0539794
12.373214 11.939084 1.0773556
12.558553 11.952646 1.0391415
12.713226 11.937065 1.0398339
12.969865 11.959677 1.0409834
13.144492 11.949342 1.0331265
-7.8174448 12.002884 1.0943017
-7.5805531 12.051098 1.0285416
-7.2314982 12.020669 1.0951306
-7.0597796 12.005579 1.0871161
-6.8759995 12.033288 1.0709178
-6.6579261 12.033724 1.0629046
-6.4245648 12.013771 1.0751063
-6.2304072 12.007164 1.0755166
-5.6401086 12.011342 1.0673209
-5.4618192 12.030648 1.0467335
-5.2131886 12.000792 1.0257398
-5.019011 12.036929 1.0255021
-4.8498254 12.008054 1.003593
-4.4098434 12.012694 1.0245324
-4.2443733 12.001419 1.0336565
-4.0220103 12.036303 1.0370787
-3.8599639 12.026024 1.0239819
-3.6499867 12.021721 1.0535896
-3.2573037 12.024776 1.0305997
-3.0533571 12.038104 1.0044978
-2.8176823 12.018466 1.0346946
-2.6255331 12.019326 1.0328767
-2.4545622 12.025161 1.0624816
-2.0473852 12.073193 1.0598216
-1.8777647 12.027558 1.0117567
-1.6691995 12.00868 1.0449251
-1.2730122 12.081817 1.0712752
-1.0441337 12.011608 1.053389
-0.82261086 12.026698 1.0199296
-0.66439342 12.02456 1.0811572
-0.45113945 12.014542 1.0198084
-0.25407505 12.009124 1.0035609
3.9327927 12.001696 1.0003316
-10.296244 12.162885 1.0534627
-7.0234766 12.198509 1.0368278
-6.4381304 12.197659 1.077491
-5.8414636 12.195978 1.0725191
-5.6423879 12.194284 1.0265737
-5.2612987 12.179358 1.0368519
-4.6433825 12.174532 1.0201283
-4.3698716 12.192363 1.0362995
-4.0497465 12.199436 1.0145767
-3.8141475 12.198209 1.060953
-3.2159729 12.185959 1.0661637
-2.8828239 12.178027 1.0591871
-2.6651487 12.197716 1.0130694
-2.0614023 12.199422 1.0254791
-1.4490147 12.18844 1.0217466
-1.3508587 12.147466 1.0670441
-1.2143183 12.137722 1.0829778
-0.63040543 12.18174 1.0275594
-0.44242287 12.197288 1.0284213
-0.25620556 12.192833 1.0141922
0.14485168 12.17913 1.0136071
0.38053226 12.19339 1.0065838
3.9582167 12.186007 1.0161898
4.1250811 12.183176 1.0143416
4.3809071 12.171558 1.0211787
4.5614157 12.198406 1.012536
4.7660236 12.177678 1.0360172
4.9504404 12.165125 1.0785959
5.1415768 12.180067 1.0460743
5.9720116 12.184484 1.0802532
6.1812792 12.169659 1.0818471
6.404912 12.156553 1.092989
6.5404177 12.188843 1.0897578
6.7487631 12.137982 1.0868975
6.9569092 12.166756 1.097487
7.1256752 12.191673 1.0920601
7.3510046 12.148113 1.0878347
7.5787153 12.194309 1.091514
7.7367744 12.163941 1.0774815
8.0075035 12.177908 1.0711555
8.1573505 12.177999 1.071404
8.3708382 12.137518 1.0688821
8.5594597 12.143157 1.0400269
8.7607174 12.168612 1.0604258
9.8025169 12.165236 1.0043885
10.119696 12.143395 1.093791
10.38799 12.1668 1.0780313
10.618793 12.129809 1.0861322
11.788587 12.133423 1.0379797
11.922438 12.145396 1.0712905
12.150588 12.149642 1.0449978
12.350623 12.158077 1.063382
12.546444 12.125313 1.0536402
12.704997 12.149176 1.0439425
12.967221 12.138355 1.0595318
13.157982 12.130631 1.0364962
13.368615 12.135477 1.0135809
-11.946594 12.209708 1.0327994
-11.047831 12.299422 1.0303553
-6.8487015 12.233843 1.07751
-6.6334362 12.233375 1.0908908
-6.2176738 12.235587 1.0392246
-6.0557351 12.211432 1.0783465
-5.4661031 12.231447 1.0235006
-5.0306444 12.212909 1.0205946
-4.8471632 12.205437 1.0455354
-4.4329166 12.227494 1.0036817
-4.229454 12.209415 1.0281519
-4.0763254 12.204409 1.0491844
-3.8329511 12.231915 1.0093273
-3.6857142 12.210499 1.0482162
-3.4387715 12.245672 1.0372739
-3.2522483 12.216883 1.0207167
-3.0514913 12.215507 1.0533779
-2.5152168 12.200062 1.0966845
-2.2525902 12.201161 1.0090318
-1.866334 12.216449 1.0180423
-1.6203594 12.215468 1.0125355
-1.2612705 12.20955 1.0110612
-1.0353808 12.211441 1.0552311
-0.93423843 12.2852 1.082003
-0.8794775 12.20225 1.0352979
-0.66730499 12.245393 1.0946665
-0.066962242 12.210061 1.012014
8.4069614 12.29022 1.0056481
-10.726417 12.325388 1.0759376
-6.842617 12.396338 1.0989791
-6.0344076 12.396681 1.0786762
-5.0332127 12.367591 1.0161387
-4.8638778 12.384565 1.0408329
-4.4572353 12.386707 1.0547481
-4.0948038 12.396818 1.0453018
-3.7041907 12.334571 1.0527121
-3.4084888 12.38623 1.0899491
-2.8592081 12.36033 1.0900196
-2.6570234 12.352286 1.0828248
-2.2634087 12.393242 1.0062037
-2.0534344 12.393265 1.0089368
-1.8308663 12.38501 1.0445075
-1.6758051 12.374676 1.0194311
-1.2656164 12.399154 1.0940367
-1.0566797 12.385794 1.0486346
-0.63529778 12.398404 1.0431558
-0.45065498 12.371257 1.034147
-0.25118256 12.394691 1.0094515
-0.09687233 12.368368 1.0096574
3.7572212 12.371977 1.0043347
4.3040028 12.385498 1.0433172
4.5518026 12.388033 1.0178219
4.7493668 12.35964 1.0446235
4.9286804 12.378205 1.069067
5.1572866 12.379149 1.0838056
5.9363747 12.34618 1.0905591
6.1483002 12.361018 1.070485
6.4041252 12.363617 1.0869123
6.5579815 12.372235 1.0944866
6.7665043 12.352524 1.0767753
6.9456434 12.357763 1.064847
7.2010593 12.32891 1.0840166
7.3562851 12.388896 1.0797012
7.5637913 12.353237 1.0802623
7.7750616 12.37524 1.0788538
7.9386902 12.331381 1.086778
8.1772575 12.348082 1.0676543
8.3503084 12.365926 1.0606004
8.5562668 12.370858 1.0883992
9.7624693 12.33739 1.0913593
10.148911 12.357451 1.0835689
10.328669 12.377504 1.0897217
11.185225 12.335152 1.0345966
11.720557 12.365586 1.0503466
12.031138 12.346732 1.0659041
12.152356 12.352318 1.0807296
12.332314 12.344939 1.0691661
12.547778 12.327829 1.0730989
12.696521 12.379913 1.0969779
12.754725 12.362293 1.0433441
12.965774 12.348236 1.0267595
13.165646 12.351513 1.0423871
13.366892 12.338563 1.0139494
13.54479 12.335269 1.0056713
-7.0654554 12.420528 1.0954008
-6.6622167 12.430417 1.087631
-6.4897771 12.435883 1.0882432
-6.2543159 12.412889 1.0883552
-5.8602734 12.420779 1.0883609
-5.6281543 12.440647 1.0512148
-5.4196835 12.415078 1.0356081
-5.2466526 12.433439 1.0420201
-5.0302119 12.434211 1.0577728
-4.6509914 12.4156 1.0511179
-4.4057264 12.422088 1.0205876
-4.2469077 12.409693 1.0431192
-3.8400819 12.461748 1.0593768
-3.6270723 12.421005 1.0268543
-3.4173312 12.404308 1.0320803
-3.2532094 12.444641 1.0511262
-3.0414677 12.425883 1.029639
-2.8413048 12.409651 1.0346014
-2.6308565 12.422925 1.0329275
-2.4678636 12.415402 1.0550768
-1.4690514 12.401772 1.0098699
-1.2183228 12.419832 1.0260834
-0.85588646 12.411276 1.0533748
3.9510002 12.41707 1.0175133
4.1852961 12.403831 1.0034353
8.2344475 12.457014 1.0168734
-5.8537273 12.577542 1.0869164
-5.2611442 12.592633 1.0963502
-5.1844907 12.592505 1.0182735
-4.6652145 12.585133 1.0118651
-4.4585652 12.563507 1.07138
-4.200068 12.596069 1.0733774
-4.0332966 12.586295 1.0619855
-3.4624572 12.588858 1.0401115
-3.2256317 12.596544 1.0375565
-2.4537611 12.599422 1.0345968
-2.2437391 12.587501 1.0906847
-1.861618 12.59866 1.0080602
-1.6501865 12.541412 1.0174637
-0.82858181 12.594769 1.0564083
-0.65809631 12.58718 1.0403466
-0.45496178 12.571977 1.0460322
0.15103912 12.596568 1.0009451
3.7688742 12.574024 1.0007709
3.9814501 12.578897 1.0205219
4.3723497 12.594158 1.0531348
4.5374346 12.585203 1.067488
4.7279339 12.584669 1.0945832
4.9853344 12.566801 1.0779905
6.1466675 12.580229 1.0912815
6.547101 12.558747 1.0889891
6.7399874 12.562352 1.073945
6.9692078 12.587673 1.0604751
7.1662207 12.568844 1.0665144
8.1384039 12.573992 1.0768942
8.5756321 12.551832 1.0881691
9.5078106 12.574655 1.0301895
10.609412 12.563643 1.058548
11.336033 12.543462 1.0581979
11.56963 12.597989 1.0751823
12.045148 12.543293 1.0652187
12.349667 12.536497 1.080205
12.531162 12.555639 1.0784956
12.769308 12.551362 1.0598907
12.969375 12.553403 1.0447195
13.14706 12.532743 1.0529552
13.363379 12.529382 1.0211037
13.555424 12.522558 1.0062068
17.489803 12.588811 1.007426
-10.749792 12.680752 1.0886099
-6.2310386 12.613828 1.0944355
-6.074986 12.609681 1.0922503
-5.6597142 12.607488 1.0579468
-5.4356737 12.654478 1.0564132
-5.0348978 12.608483 1.0745302
-4.8508754 12.619165 1.069471
-4.7995758 12.613494 1.0146241
-4.648366 12.620505 1.0848751
-4.4781561 12.603924 1.0254018
-4.2363691 12.607261 1.0394323
-3.8098335 12.608564 1.0490174
-3.6475048 12.605886 1.0731634
-3.434741 12.610106 1.0852129
-3.0471096 12.621675 1.0775828
-2.8529701 12.609994 1.0422564
-2.6267719 12.626281 1.0520612
-2.597558 12.671408 1.0985839
-2.2366056 12.629709 1.0342065
-2.0454788 12.607818 1.011254
-1.4420452 12.608281 1.0347948
-1.2411032 12.600567 1.0445589
-1.0381746 12.61286 1.0410144
-0.24084091 12.607077 1.0304437
4.1875401 12.606082 1.0576279
8.3644886 12.608346 1.0911341
10.10408 12.644032 1.0021102
10.956969 12.679907 1.0703866
-5.7627091 12.708546 1.0415372
-5.0546136 12.798728 1.0969969
-4.0713849 12.787932 1.0409032
-3.4660859 12.784239 1.0562963
-2.8289709 12.783376 1.0949291
-2.6578465 12.785564 1.0602763
-2.4864359 12.799663 1.0246395
-2.2439699 12.796644 1.0285881
-1.6524229 12.798554 1.0201596
-1.4360542 12.797617 1.0095314
-0.44120598 12.799988 1.0083491
-0.23754025 12.772383 1.0094329
-0.063559532 12.799879 1.0045139
0.14767456 12.769979 1.0092688
2.6146049 12.743554 1.0068612
4.1965847 12.779058 1.0479735
4.3561716 12.778312 1.0608377
6.3752041 12.752733 1.0650491
6.5487938 12.748634 1.0853318
6.7508745 12.780032 1.0842625
6.9374828 12.753232 1.087221
7.3613424 12.744328 1.0940111
7.5373774 12.779911 1.0195999
7.9837408 12.738984 1.0372915
8.3728857 12.767211 1.0961888
8.975853 12.717813 1.0923702
10.795328 12.792554 1.0650532
11.15343 12.756175 1.0647717
11.574241 12.763713 1.0986936
11.781696 12.744468 1.0960295
12.061718 12.741152 1.0777738
12.367256 12.747833 1.0771737
12.57703 12.76122 1.093527
12.756447 12.720937 1.0571938
12.955631 12.748802 1.060627
13.146865 12.73943 1.042166
13.370455 12.73239 1.0009235
13.554123 12.735123 1.0119655
13.730214 12.767917 1.0062104
-6.9955978 12.828034 1.0798856
-6.1694679 12.886295 1.0158415
-5.8938513 12.879552 1.0423859
-5.6446695 12.812578 1.0954216
-5.4491835 12.828708 1.0706997
-5.2128119 12.810429 1.0736537
-5.021852 12.803566 1.0161428
-4.8605242 12.815301 1.0619202
-4.6587372 12.810613 1.0393975
-4.4426889 12.805863 1.0575664
-4.2406101 12.820246 1.079452
-4.0574765 12.825103 1.0969807
-3.8544121 12.81686 1.0433588
-3.6573944 12.812345 1.0589207
-3.2435141 12.822405 1.0518262
-3.0312624 12.802036 1.0580325
-2.8467121 12.802011 1.0495574
-2.0607462 12.808312 1.0027879
-1.2435503 12.806128 1.0390606
-1.0328016 12.8028 1.0532963
-0.83569717 12.807903 1.050267
-0.63798141 12.801414 1.0308725
0.97902298 12.835205 1.0025569
2.7476587 12.820913 1.0165707
3.1451712 12.82297 1.0094202
4.5416527 12.804139 1.0956424
6.1824751 12.8064 1.0263499
8.9543943 12.840206 1.0526817
9.2406721 12.892639 1.0715231
11.318115 12.810267 1.0767943
-8.0193911 12.968549 1.0896587
-6.8315568 12.934352 1.0158465
-6.0657296 12.912055 1.0037724
-5.4278097 12.928691 1.0011026
-4.2256241 12.977065 1.0497069
-4.0723 12.98844 1.0669173
-3.8375087 12.979009 1.0521337
-3.2811279 12.996374 1.0501676
-2.6260576 12.994875 1.075781
-1.8474131 12.984569 1.0432947
-1.4490595 12.991347 1.0215269
-0.64489365 12.989942 1.0264792
-0.45205021 12.980194 1.0308036
-0.28061581 12.981731 1.0272028
0.14984035 12.995536 1.0017833
0.76406765 12.965734 1.014976
1.5778742 12.964298 1.0132151
1.9129629 12.994714 1.0072387
3.2027245 12.981139 1.0244401
4.1740685 12.980107 1.0462866
4.3638983 12.96502 1.0627978
4.5806322 12.975391 1.0056762
6.3730125 12.959469 1.0779997
6.6310139 12.962888 1.022523
6.738245 12.977377 1.0916837
6.9754801 12.983638 1.074086
7.1615028 12.975764 1.0787859
7.7053146 12.986877 1.057513
8.2730703 12.921196 1.0341829
8.6262569 12.994092 1.0634636
9.0042334 12.978847 1.0673628
10.728025 12.975137 1.0619386
11.118742 12.914186 1.0721446
11.592717 12.962976 1.0935538
11.948436 12.917114 1.0896859
12.187574 12.942073 1.0857954
12.561441 12.959287 1.0985435
12.764861 12.931756 1.0607538
12.957965 12.955972 1.0545692
13.153407 12.931623 1.0422997
13.344407 12.941075 1.0338988
13.557937 12.953811 1.0193336
17.599371 12.941493 1.0240841
-11.849882 13.00423 1.0811237
-7.2927856 13.006451 1.0912369
-5.2973261 13.021831 1.0646235
-5.0052166 13.014132 1.0929846
-4.8674011 13.001501 1.0960008
-4.630765 13.020609 1.0458584
-4.4319253 13.053091 1.0540053
-3.6366882 13.001486 1.0536695
-3.4198589 13.008385 1.0685617
-3.041358 13.031413 1.0671438
-2.8337364 13.007629 1.079486
-2.434411 13.002216 1.0372336
-2.2298927 13.012661 1.0735023
-2.0636082 13.014163 1.0472291
-1.6221848 13.036498 1.0151331
-1.2372856 13.003119 1.0362502
-1.0370321 13.031398 1.0350162
-0.84164906 13.004943 1.0241371
0.36375141 13.027085 1.0221082
0.58412266 13.007746 1.0075043
0.9604311 13.018127 1.0179518
1.3190308 13.021192 1.0246313
2.6739521 13.075418 1.0241017
3.3667545 13.005525 1.0203443
3.7285633 13.041566 1.0373564
3.9376774 13.071696 1.0434471
6.3788652 13.004725 1.0332216
8.7733765 13.073905 1.0612736
8.9918137 13.090816 1.0783103
16.347435 13.072326 1.009092
17.040646 13.070741 1.0025668
17.379539 13.095353 1.0436355
-5.8930511 13.12869 1.0565708
-3.8084407 13.157606 1.0683863
-3.6541934 13.193057 1.0767175
-2.2361794 13.193035 1.0841128
-2.0521059 13.187023 1.0805836
-1.0565662 13.193874 1.030827
-0.86431885 13.199164 1.0200005
-0.43885803 13.158799 1.0247461
0.1023407 13.197532 1.0130973
0.75572586 13.166639 1.0356163
1.5229483 13.178157 1.0309994
1.6983232 13.171052 1.0370994
1.9128618 13.191886 1.0439767
2.36625 13.116773 1.0183754
3.1681585 13.17631 1.0082641
3.3467846 13.180217 1.0061985
3.539649 13.188858 1.011893
3.7586975 13.191731 1.0567342
3.9696484 13.193945 1.0778174
4.144125 13.198069 1.0769837
6.9933739 13.175653 1.0979611
7.9451771 13.115585 1.0508406
9.5125494 13.135714 1.0746244
10.204694 13.146409 1.0711062
10.346791 13.140718 1.0758593
11.176754 13.131547 1.0631896
11.350924 13.151136 1.0987606
11.591056 13.188625 1.0921121
11.94241 13.114414 1.0813242
12.772907 13.116795 1.0831518
12.954114 13.131809 1.0836834
13.143205 13.148421 1.0700921
13.371988 13.166923 1.0582993
13.568524 13.139715 1.0463408
13.759657 13.145883 1.0189461
13.931623 13.121407 1.0069203
17.189423 13.10042 1.0218968
17.510414 13.137255 1.0419133
-5.4788589 13.273513 1.0699229
-5.0454135 13.244245 1.0726278
-4.796979 13.253038 1.0491084
-4.6524615 13.23215 1.077888
-4.4293261 13.213171 1.0746696
-4.2880712 13.217007 1.0634375
-4.0416284 13.219209 1.0534296
-3.417119 13.221408 1.0903183
-3.2277341 13.216629 1.0919955
-3.047492 13.20689 1.0854422
-2.8502436 13.216317 1.0957052
-2.665329 13.203286 1.0867971
-2.4829063 13.209454 1.073741
-1.8919134 13.215138 1.0535655
-1.6490498 13.2073 1.0526005
-1.4721308 13.212367 1.0512584
-1.25352 13.213175 1.0435904
-0.66475677 13.230401 1.0396204
-0.25155258 13.214455 1.0455359
-0.050230026 13.211458 1.0294468
0.36522675 13.201383 1.0321212
0.55417919 13.200862 1.0414629
0.97773647 13.205556 1.0379087
1.1443043 13.23473 1.0236845
1.3653765 13.207411 1.0485905
4.7039289 13.264839 1.0127813
5.2339988 13.270342 1.008538
6.8045292 13.219687 1.0513026
8.3203926 13.21672 1.0840867
-8.5450735 13.380524 1.0291389
-4.6235476 13.397326 1.0857937
-4.2474427 13.384086 1.0982345
-3.024025 13.384356 1.0990881
-2.828825 13.395586 1.0953099
-2.4438076 13.381528 1.0964104
-2.0308561 13.398726 1.06029
-1.1937351 13.393152 1.0494802
-0.8094492 13.38708 1.0585035
-0.43706036 13.391377 1.0617657
0.58487892 13.388585 1.0451894
0.73919582 13.387281 1.0582682
0.95777702 13.391787 1.0622325
1.3619585 13.38607 1.0627903
1.5340309 13.383711 1.0370206
2.9080658 13.319691 1.016862
3.3927069 13.339931 1.0637797
3.5896072 13.344667 1.0545772
3.7710238 13.355571 1.0227633
3.9885054 13.343783 1.0890825
5.3448105 13.364797 1.0189072
5.5192089 13.372422 1.0191932
6.3844662 13.380191 1.0666698
6.5898094 13.368921 1.0758444
7.0343323 13.385711 1.0715499
7.5237579 13.390606 1.04017
12.960908 13.352032 1.0911629
13.160808 13.356057 1.0763402
13.345581 13.354057 1.0831146
13.583578 13.335485 1.0443629
13.765267 13.340579 1.0416602
17.14764 13.312531 1.0070686
17.467236 13.30334 1.0456634
-5.45192 13.429344 1.0681698
-5.0043931 13.407645 1.0877258
-4.8331351 13.402369 1.0821441
-4.4574213 13.411566 1.0912071
-4.0388837 13.417544 1.0925523
-3.8406162 13.413879 1.076777
-3.6412139 13.434977 1.0867459
-3.4282541 13.409323 1.0984485
-3.2528858 13.441372 1.09288
-2.6436453 13.428236 1.0997083
-2.2617168 13.414695 1.0909535
-1.8546371 13.400264 1.0577048
-1.6264095 13.400609 1.0475059
-1.4266491 13.439662 1.0542355
-1.0482368 13.406226 1.0547243
-0.67233944 13.442166 1.064778
-0.23361778 13.409366 1.072354
-0.035653114 13.401558 1.055837
0.16799641 13.404634 1.0651838
0.36634541 13.401139 1.0610497
1.1800079 13.400307 1.0652564
1.8124132 13.447403 1.0646447
1.9985018 13.484699 1.0324454
3.0724878 13.468908 1.0303062
5.282752 13.494303 1.0356983
5.6610613 13.400925 1.0168415
5.9152756 13.405026 1.0515252
6.1879902 13.405544 1.0438092
6.5699034 13.415762 1.0728958
6.8432779 13.454976 1.0649823
6.9812393 13.491255 1.0827408
7.7747936 13.48403 1.0796713
14.491441 13.452105 1.00603
15.095675 13.463787 1.0194391
-9.655159 13.598114 1.0272831
-6.2841458 13.586871 1.0800281
-4.6564016 13.586432 1.0981379
-3.847167 13.586037 1.0997697
-0.46104145 13.588933 1.0973468
0.36666965 13.583351 1.0923907
0.74227142 13.593298 1.076985
1.1430988 13.584568 1.0891646
1.3579054 13.585814 1.0871344
1.6954737 13.59783 1.0510728
2.9296455 13.527602 1.0098398
3.3657093 13.585011 1.001164
3.6343584 13.521556 1.0872145
3.7530127 13.567663 1.0113134
4.0008469 13.585806 1.0278499
4.7213736 13.560687 1.0263638
4.9267092 13.544581 1.0327539
5.5023527 13.575474 1.0437096
5.9372272 13.548368 1.0568846
6.1166019 13.545979 1.0254043
6.5572605 13.580356 1.0902569
8.213583 13.528611 1.0892802
13.178812 13.54531 1.0965115
13.371593 13.563875 1.0860205
13.553584 13.535913 1.0644157
13.781854 13.525599 1.0628998
14.019158 13.502963 1.0108254
17.553593 13.512541 1.0637391
-7.2059155 13.678886 1.0744201
-6.571784 13.660656 1.0105144
-6.0310454 13.642009 1.0930663
-5.6793652 13.606119 1.0881211
-5.2552404 13.621141 1.0947373
-4.2572799 13.609895 1.0950384
-2.242034 13.609188 1.0974956
-1.8421249 13.60815 1.0882281
-1.6503429 13.600899 1.0807087
-1.4764757 13.637305 1.0681087
-1.2281294 13.60012 1.048964
-1.0013847 13.618004 1.0799122
-0.812994 13.611855 1.0961781
-0.60930061 13.629267 1.0808998
0.5502615 13.60323 1.0712708
1.5705719 13.600464 1.0575789
3.0960131 13.670472 1.058251
3.3543282 13.662894 1.0803756
4.1350937 13.676618 1.0584375
4.2877426 13.636316 1.0308563
4.5812035 13.699458 1.0671161
5.9539652 13.687374 1.0807104
6.7886562 13.647913 1.0884335
-6.422318 13.708154 1.0530874
0.94485474 13.789685 1.0968999
1.091444 13.772348 1.015955
1.7311535 13.786529 1.0792557
3.0465689 13.787455 1.0078387
3.5770788 13.760584 1.0205042
3.7355042 13.754014 1.0166913
4.1545582 13.790495 1.0452456
4.3936644 13.794875 1.0311732
4.8392458 13.737704 1.0347468
5.097683 13.784724 1.0467448
5.786479 13.74706 1.0673056
6.1953344 13.720526 1.0814222
6.3079729 13.762465 1.0908473
6.9570427 13.767049 1.091773
7.4180717 13.769731 1.0811758
7.599535 13.789589 1.0869222
7.7185125 13.726739 1.0745173
13.365242 13.745658 1.0935549
13.569072 13.747135 1.0962677
13.765824 13.744503 1.066046
13.967742 13.74799 1.0430317
14.161763 13.737617 1.0126715
14.339573 13.755373 1.0062912
14.48466 13.768644 1.0213084
-6.7259021 13.807702 1.0339608
-1.4786663 13.806793 1.0947851
0.35999298 13.813326 1.0900748
0.94576073 13.853188 1.0013034
1.871604 13.832155 1.0836641
2.3107519 13.811273 1.016957
2.6125898 13.892835 1.0705333
3.191371 13.812815 1.0218041
3.3717098 13.806822 1.0364665
3.984271 13.801263 1.0426019
-8.5184269 13.938019 1.0910407
0.71020603 13.954184 1.0195941
1.3237286 13.937903 1.0277429
1.7850027 13.975021 1.0264111
2.6089191 13.956832 1.0178845
2.7573843 13.979297 1.0250655
3.363596 13.978148 1.0324522
3.7816792 13.975317 1.0601413
3.9824924 13.941191 1.0643655
4.158968 13.908567 1.0828353
4.2040491 13.902014 1.0304172
5.4683104 13.961229 1.0954762
6.1548843 13.925242 1.088239
6.5087814 13.955546 1.0946617
6.8215628 13.986278 1.0981017
13.581705 13.963118 1.0293502
13.775726 13.962314 1.059644
13.975483 13.940313 1.0332752
14.172 13.935468 1.0193195
14.451482 13.93029 1.0328171
14.767439 13.950727 1.0177218
14.937872 13.934007 1.0149353
15.232471 13.924311 1.0117619
-0.48723888 14.014228 1.0134115
-0.29458427 14.068928 1.0185866
1.9693699 14.008392 1.006138
2.980505 14.033745 1.0109825
3.1654806 14.002704 1.0336038
3.5275936 14.001626 1.0750465
4.4016647 14.025683 1.0594863
4.5187855 14.040611 1.0419129
6.0219345 14.025613 1.0933212
7.1712675 14.00012 1.0850453
8.7662878 14.033498 1.0895503
-8.499033 14.130959 1.0974143
-1.4871254 14.197858 1.0121555
-0.13269806 14.110194 1.0142922
1.3977165 14.189522 1.0346333
1.8076754 14.183788 1.0272015
2.3216887 14.166246 1.0010846
2.5227747 14.12042 1.0074307
3.3895407 14.191227 1.0277532
3.5505896 14.159415 1.0106964
3.7886219 14.132197 1.0401553
4.2155313 14.188166 1.0720878
4.5365028 14.161659 1.0274526
4.9281483 14.16462 1.0676301
5.1935244 14.172417 1.0814378
5.2934675 14.13557 1.0859432
6.9813719 14.159585 1.0899663
13.570216 14.178821 1.0473592
13.76649 14.157543 1.0574516
13.952963 14.138552 1.0520595
14.186443 14.14941 1.0440766
14.353098 14.155945 1.0374973
14.478855 14.101507 1.0579125
14.646795 14.10006 1.038913
1.975729 14.209116 1.0199865
2.1332169 14.208261 1.0089884
2.9838581 14.206176 1.0194975
3.1638403 14.212447 1.0333388
3.8908167 14.217336 1.0578514
4.3703814 14.248783 1.085644
4.8007593 14.254449 1.0249001
5.783659 14.251944 1.0884644
-9.4755774 14.340566 1.0802275
2.359087 14.375597 1.0232482
2.5639496 14.380907 1.0333555
2.7432957 14.369056 1.0266471
3.5655317 14.346637 1.0618366
3.9469318 14.369608 1.0657204
4.5818462 14.364602 1.0642277
4.9811964 14.391402 1.0899475
13.578485 14.357001 1.0490174
13.778075 14.361092 1.054477
13.930209 14.36361 1.0960846
14.141223 14.350697 1.0499921
14.372472 14.332295 1.0451498
14.539033 14.365297 1.0758889
14.623075 14.3409 1.0509094
14.939018 14.349654 1.0456542
1.7775221 14.48206 1.0814111
1.9552383 14.435096 1.0444257
2.141407 14.410581 1.025714
2.9580364 14.425611 1.0228424
3.1619568 14.444298 1.0021333
4.1706686 14.42801 1.0619106
4.3908854 14.40806 1.0685918
-7.1362162 14.593299 1.0453275
-6.7185416 14.573071 1.0764388
-2.9391108 14.520083 1.0142453
1.5234108 14.563416 1.063627
1.74932 14.527684 1.0642935
2.3631973 14.570333 1.0466033
2.5589447 14.575911 1.0561686
2.7610407 14.583661 1.0510474
2.9106283 14.59456 1.0377992
3.1840467 14.587668 1.0297712
3.3998775 14.58149 1.0198954
3.8051319 14.551833 1.0364096
3.9660854 14.598377 1.0640006
4.1353922 14.588931 1.0600011
4.3475018 14.554108 1.0572426
4.76999 14.571463 1.0995812
13.557436 14.556924 1.0674405
13.713991 14.544973 1.0704007
13.968812 14.552879 1.0410242
14.188643 14.537539 1.063025
14.346206 14.54562 1.0577252
14.546814 14.558025 1.049409
14.728875 14.53718 1.0842226
1.9659643 14.623057 1.0587155
2.1466866 14.612325 1.0738943
13.910781 14.616299 1.0859189
15.132187 14.642625 1.0955173
